40.369240 6.347468 41.431110
57.254341 6.347468 40.683723
44.681805 6.347468 41.339226
37.937695 6.347468 40.895203
55.077911 6.347468 38.442783
42.159737 6.347468 40.652851
47.897789 6.347468 40.547234
55.555351 6.347468 38.013195
54.219444 6.347468 40.521896
48.947235 6.347468 40.223560
48.292892 6.347468 38.620670
52.853069 6.347468 40.283775
43.666309 6.347468 41.052738
41.364044 6.347468 40.743885
56.531414 6.347468 38.614292
53.771381 6.347468 41.574890
53.546806 6.347468 38.986374
43.432087 6.347468 40.923504
30.560881 6.347468 41.698715
54.630497 6.347468 39.420658
40.932022 6.347468 39.826118
56.507263 6.347468 37.845737
39.499207 6.347468 41.525051
44.948002 6.347468 40.008965
53.165375 6.347468 38.722179
39.697464 6.347468 40.972816
52.579510 6.347468 40.753239
30.940487 6.347468 41.076984
56.233845 6.347468 37.688324
27.447809 6.347468 41.640949
55.589916 6.347468 39.525135
47.041901 6.347468 39.987915
56.053833 6.347468 38.612698
55.119186 6.347468 41.465977
52.540764 6.347468 40.849174
51.443455 6.347468 41.672054
44.191898 6.347468 39.851585
49.011593 6.347468 38.925110
52.789791 6.347468 40.080730
42.116436 6.347468 40.592106
26.728758 6.347468 41.759945
52.073849 6.347468 41.283276
36.629311 6.347468 41.141205
55.157711 6.347468 37.965984
26.741037 6.347468 41.583260
51.957085 6.347468 38.909737
30.434725 6.347468 41.622169
36.499573 6.347468 40.642899
34.011097 6.347468 40.587322
46.181019 6.347468 40.318165
49.422256 6.347468 40.628075
51.356766 6.347468 38.930256
54.313885 6.347468 39.399445
32.385437 6.347468 41.710651
27.706018 6.347468 41.562252
50.047005 6.347468 40.012417
49.905262 6.347468 40.453350
54.509285 6.347468 38.413284
54.394737 6.347468 38.641598
36.277924 6.347468 40.704678
47.729507 6.347468 41.316578
42.524563 6.347468 39.494476
49.912350 6.347468 38.815632
51.342125 6.347468 40.033611
51.830242 6.347468 38.457050
43.788509 6.347468 41.614323
43.463711 6.347468 41.647411
43.147270 6.347468 39.956947
49.221581 6.347468 41.861149
44.547832 6.347468 41.209595
50.397552 6.347468 40.972633
50.011459 6.347468 40.997993
38.169693 6.347468 40.689121
40.959736 6.347468 41.083313
32.727631 6.347468 41.041000
39.934898 6.347468 40.922085
54.524338 6.347468 41.175716
41.016312 6.347468 40.343361
35.222862 6.347468 41.222980
30.350750 6.347468 41.149757
57.414780 6.347468 37.441540
53.535316 6.347468 39.368980
29.492718 6.347468 41.184685
47.799110 6.347468 41.295574
50.851112 6.347468 40.418015
49.040546 6.347468 39.859806
54.283009 6.347468 40.864616
37.613537 6.333574 37.185600
35.498085 6.331259 37.185600
45.085777 6.338824 37.185600
52.878010 6.322604 37.185600
41.515785 6.327537 37.185600
51.223030 6.324619 37.185600
24.346012 6.630785 41.338387
24.346012 6.433190 41.118217
24.346012 6.507319 39.544998
24.346012 6.352669 38.490543
24.346012 6.350732 40.133705
24.346012 6.379509 41.753109
24.346012 6.545584 38.178917
24.346012 6.448912 37.389591
24.346012 6.453698 37.731594
24.346012 6.562142 39.238338
24.346012 6.606771 38.924122
24.346012 6.628587 38.066448
24.346012 6.676083 38.522095
24.346012 6.708576 36.892838
24.346012 6.016780 40.163544
24.346012 5.996397 40.344433
24.346012 6.203260 37.292271
24.346012 5.984449 41.085133
24.346012 6.161009 36.762676
24.346012 6.286159 41.609032
24.346012 6.239556 40.181305
24.346012 6.291414 38.368484
24.346012 6.136163 39.889168
24.346012 6.215641 41.800800
24.346012 6.209671 40.346554
24.346012 6.275558 38.213795
24.346012 5.982269 37.129486
24.346012 5.998997 39.540688
24.346012 6.524049 36.528625
22.465336 6.245655 36.670544
23.703098 6.205801 36.663868
23.433668 6.268052 36.673790
23.629202 6.452394 36.666199
23.468800 6.526793 36.647552
23.909136 6.813074 36.459866
23.514946 6.494200 35.428101
23.908239 6.373442 35.409096
23.561480 6.350985 35.408379
22.064089 6.279630 35.410740
22.255922 6.335325 35.408386
23.999891 6.424342 35.414154
22.692152 6.105455 36.634052
23.947405 6.037902 36.603191
21.908651 6.036235 36.602753
22.424353 6.004176 36.583832
23.446028 5.934584 36.535263
22.906210 5.924078 36.526699
22.861683 5.815567 36.406887
23.943298 5.822287 36.417347
22.138508 5.821262 36.414810
22.383945 5.790903 36.369019
23.811325 5.711522 36.161148
22.427370 5.716381 36.183388
22.076786 5.703294 36.104023
23.352480 5.756188 35.781227
21.990244 5.746323 35.805996
22.414824 5.801617 35.699127
22.844328 5.838293 35.647968
22.401022 5.898159 35.581928
22.387997 5.948777 35.538586
22.573605 5.978004 35.518250
23.800737 5.969243 35.524109
22.699875 6.114317 35.447273
22.584467 6.135005 35.440521
22.704044 6.188742 35.425079
23.691654 6.711363 35.531662
22.142803 6.774091 35.584709
23.297009 6.805285 35.616592
22.068523 6.782102 35.592922
23.473471 6.878004 35.714451
22.971382 6.936361 35.839493
23.209677 6.939995 35.851715
23.338940 6.960117 35.935894
22.588295 6.967366 35.997341
21.925022 6.955595 36.172699
22.065214 6.871104 36.382061
22.113869 6.802781 36.470757
22.219749 6.734348 36.535545
23.012629 6.742479 36.529396
22.374935 6.720489 36.546043
22.602413 6.691984 36.567562
23.362682 6.648753 36.594284
22.955477 6.606460 36.615681
22.761108 6.480344 36.659977
23.118477 6.341876 36.677334
23.056908 6.288212 36.675316
21.907612 6.247804 36.444355
21.907612 6.217538 36.293987
21.907612 6.627759 36.119007
21.907612 5.983996 36.032398
21.907612 6.939975 35.889225
21.907612 6.310999 35.431385
21.907612 6.577647 36.524246
21.907612 5.992934 36.460049
21.907612 5.977888 36.411652
21.907612 6.021556 36.168518
21.907612 5.881038 36.070557
21.907612 5.824181 35.977062
21.907612 6.189527 35.872395
21.907612 5.802923 35.837799
21.907612 6.524868 35.707668
21.907612 6.192719 35.556190
21.907612 6.184189 35.513100
24.092012 6.694402 36.588188
24.092012 6.634369 37.658131
24.092012 6.609194 36.737240
24.092012 6.626173 39.265369
24.092012 6.447684 36.711166
24.092012 6.498155 38.311321
24.092012 6.458158 38.436172
24.092012 6.449959 41.276745
24.092012 6.375255 41.626873
24.092012 6.392773 39.005299
24.092012 6.224325 39.863640
24.092012 6.134125 39.772400
24.092012 6.629159 41.223923
24.092012 6.202085 41.830662
24.092012 6.303239 41.761948
24.092012 6.570657 40.127316
24.092012 6.376474 38.183178
24.092012 6.517704 39.428391
24.092012 6.161323 40.159267
24.092012 6.334712 41.174698
24.092012 6.603224 40.846855
24.092012 6.227566 37.410580
24.092012 6.088824 38.921719
24.092012 6.003800 40.388409
24.092012 6.056270 37.779129
24.092012 5.994241 38.143913
24.092012 5.965336 38.202011
24.092012 5.964955 32.091709
24.092012 6.027446 34.588715
24.092012 6.031676 33.603397
24.092012 6.092083 35.279312
24.092012 6.117414 35.249065
24.092012 6.080634 32.571907
24.092012 6.202528 34.630314
24.092012 6.072008 31.849627
24.092012 6.546387 31.375841
24.092012 6.316964 33.135357
24.092012 6.663758 30.623272
24.092012 6.204461 32.377960
24.092012 6.363717 32.194481
24.092012 6.115953 31.060410
24.092012 6.276749 32.386692
24.092012 6.170457 31.672123
24.092012 6.327066 34.713062
24.092012 6.352159 31.732460
24.092012 6.509359 30.343653
24.092012 6.202009 33.134014
24.092012 6.590575 31.470181
24.092012 6.064411 30.331705
24.092012 6.499847 33.889214
24.092012 6.489821 34.108692
24.092012 6.677467 31.070305
24.092012 6.584293 33.396709
24.092012 6.645525 33.495926
24.092012 6.616898 35.040176
24.092012 6.650776 34.006733
24.092012 6.707973 31.953068
57.747013 6.362657 41.473606
57.747013 6.497074 40.452885
57.747013 6.431202 39.358074
57.747013 6.349276 39.015743
57.747013 6.382437 38.477844
57.747013 6.459216 39.624222
57.747013 6.591961 39.546692
57.747013 6.625866 39.622414
57.747013 6.625125 40.653446
57.747013 6.473372 37.656940
57.747013 6.569862 38.039471
57.747013 6.527801 36.516235
57.747013 6.169480 36.577591
57.747013 6.157093 37.549946
57.747013 6.177441 37.827770
57.747013 6.115408 36.749031
57.747013 6.015325 39.935123
57.747013 6.093502 39.685818
57.747013 5.995048 39.828163
57.747013 5.968177 41.002155
57.747013 6.004225 37.392353
57.747013 5.997631 36.297455
57.747013 5.970367 38.328815
57.747013 6.697282 36.556919
57.747013 6.675844 38.020313
57.747013 6.643145 37.676975
57.747013 6.655503 38.735580
57.747013 6.318124 36.882324
57.747013 6.129974 40.667622
57.747013 6.185619 39.001625
57.747013 6.157271 39.527946
57.747013 6.220773 38.526020
57.747013 6.214982 39.265163
57.747013 6.177647 40.456051
57.747013 6.295152 31.728535
57.747013 6.172451 32.379498
57.747013 6.247138 30.571268
57.747013 6.207174 33.107605
57.747013 6.116130 31.217686
57.747013 6.317205 32.831940
57.747013 6.037719 33.403988
57.747013 6.137929 32.989243
57.747013 6.056666 32.456329
57.747013 6.090408 33.474564
57.747013 6.026740 32.813705
57.747013 6.443764 35.323299
57.747013 6.569634 32.255917
57.747013 6.554104 32.348808
57.747013 6.581636 33.713364
57.747013 6.634819 31.506922
57.747013 6.560414 35.666420
57.747013 6.652434 32.902065
57.747013 6.699265 32.112560
57.747013 6.679235 35.576973
57.747013 6.028889 35.522305
57.747013 6.016751 33.058826
57.747013 6.542264 31.094017
57.747013 6.561713 31.640825
57.747013 6.398564 31.074686
57.747013 6.413007 32.584633
57.747013 6.420252 30.473804
57.747013 6.543527 32.154129
57.828541 5.953768 30.968746
57.816391 5.953768 32.053162
57.782131 5.953768 33.121578
57.774193 5.953768 35.273422
57.749699 5.953768 33.326740
57.853310 5.953768 37.946480
57.991486 5.953768 39.668083
57.920158 5.953768 35.258667
57.950279 5.953768 34.365971
57.959858 5.953768 35.534584
57.881832 5.953768 36.283192
57.986374 5.953768 39.677528
57.914631 5.953768 35.636703
57.953861 5.953768 38.876015
57.976131 5.953768 31.312061
57.856049 5.953768 38.743919
57.922054 5.953768 41.366257
57.837975 5.953768 40.147022
57.902912 5.953768 40.267990
57.814159 5.953768 38.503651
57.761570 5.953768 41.016132
57.837166 6.715768 40.489986
57.833179 6.715768 38.917969
57.807289 6.715768 40.649864
57.917793 6.715768 41.743896
57.921322 6.715768 41.761650
57.971855 6.715768 36.029018
57.909657 6.715768 34.726830
57.947067 6.715768 38.634254
57.977436 6.715768 38.789032
57.989628 6.715768 39.099586
57.943806 6.715768 34.204262
57.997005 6.715768 36.563103
57.986305 6.715768 41.317352
57.923275 6.715768 35.722008
57.966770 6.715768 35.240143
57.942444 6.715768 35.432384
57.782425 6.715768 31.192142
57.749271 6.715768 34.608082
57.748638 6.715768 33.154270
57.821598 6.715768 31.314480
57.769089 6.715768 33.141808
57.817108 6.715768 34.266964
58.001011 6.517035 35.275742
58.001011 6.490667 38.241737
58.001011 6.414930 36.735939
58.001011 6.602153 40.392570
58.001011 6.683106 32.683628
58.001011 6.570139 34.605453
58.001011 6.298976 36.822388
58.001011 6.122742 41.131981
58.001011 6.410010 39.756439
58.001011 6.639821 32.683636
58.001011 6.591405 37.836662
58.001011 6.663136 39.529793
58.001011 6.709517 35.359322
58.001011 6.698213 38.383194
58.001011 6.497954 38.016735
58.001011 6.668606 35.624908
58.001011 6.298763 41.298286
58.001011 6.528677 37.891510
58.001011 6.405653 35.542778
58.001011 6.693939 37.381435
58.001011 6.348777 39.849674
58.001011 6.436780 37.692196
58.001011 6.635199 36.292877
58.001011 6.714410 31.141556
58.001011 6.410210 35.392197
58.001011 6.631435 32.904808
58.001011 6.104568 40.547016
58.001011 6.646745 39.610374
58.001011 6.607798 32.784866
58.001011 6.691172 34.054676
58.001011 6.677832 40.001148
58.001011 6.047586 39.185043
58.001011 6.335798 34.295429
58.001011 6.298204 31.648876
58.001011 6.374209 32.566994
58.001011 6.141082 33.533722
58.001011 6.236346 35.234482
58.001011 6.180115 37.520908
58.001011 6.214401 36.387585
58.001011 6.240109 31.588772
58.001011 6.531157 31.276554
58.001011 6.010408 38.098839
58.001011 6.401226 33.340645
58.001011 6.226648 37.214745
58.001011 5.987149 30.734211
58.001011 5.961520 33.039322
58.001011 6.104809 30.736914
58.001011 6.179636 31.955200
58.001011 6.363789 33.032734
58.001011 6.345448 30.665924
58.001011 5.970310 32.252525
58.001011 6.145082 31.730938
58.001011 6.087245 35.072117
58.001011 6.314702 33.879456
58.001011 6.456779 30.256975
58.001011 6.103457 31.248381
58.001011 6.179856 31.794855
58.001011 5.993128 35.620354
58.001011 5.979431 36.234936
58.001011 5.992494 38.652306
58.001011 6.060597 39.540188
58.001011 6.029033 30.599501
58.001011 6.167474 34.749985
51.044159 6.119643 36.356239
50.011032 6.157741 36.379356
32.547432 6.714533 36.065594
33.109543 6.708557 36.113605
34.076252 6.695543 36.163174
48.068542 6.166054 36.383362
54.549900 5.982584 36.186516
56.261559 5.965037 36.131382
57.463345 5.967327 36.142792
57.063877 5.982436 36.186783
56.499462 5.987802 36.199554
55.277344 6.017285 36.252045
47.606293 6.310374 36.422031
45.440071 6.397712 36.417702
44.179169 6.459929 36.401672
38.462799 6.667418 36.226997
34.882542 6.712872 36.082806
34.168964 6.715556 36.054279
33.287071 6.711757 35.992092
31.989218 6.699017 35.933563
43.221001 6.533750 36.366749
36.933109 6.706596 36.122196
31.871113 6.683850 35.891869
31.018894 6.662100 35.849113
30.044920 6.641233 35.817074
57.071617 6.031477 36.272831
49.814705 6.307655 36.421860
47.042797 6.441928 36.407650
39.425018 6.684255 36.193848
38.700790 6.701260 36.145576
36.886528 6.714746 36.063377
33.298409 6.691027 35.908081
32.263992 6.663970 35.852196
24.425758 6.434474 35.675610
35.103767 6.703525 35.948753
31.281725 6.610270 35.780113
27.630955 6.497802 35.698406
25.874798 6.345358 35.662361
24.871710 6.332031 35.662354
25.725666 6.341673 35.662365
56.946884 6.097668 36.340317
56.396954 6.117145 36.354614
48.386211 6.451425 36.404495
46.752739 6.531761 36.368046
36.839890 6.706154 35.957611
27.095274 6.397354 35.667309
25.067131 6.230718 35.676765
55.397655 6.192661 36.396046
45.358681 6.607656 36.307667
44.229065 6.634625 36.277313
43.353161 6.665229 36.231194
38.394508 6.712599 35.997303
37.580189 6.704308 35.951393
26.435101 6.243364 35.673496
54.367725 6.293861 36.420975
53.157936 6.336346 36.423496
43.340889 6.690678 36.176395
37.320827 6.690725 35.907398
35.348820 6.634072 35.808094
29.030277 6.406178 35.668442
28.599936 6.290164 35.664986
48.796532 6.568504 36.342953
47.505989 6.613684 36.301029
44.297310 6.695063 36.164478
42.592293 6.711648 36.095501
39.497147 6.705891 35.956726
35.112591 6.608448 35.778351
33.802002 6.570316 35.743958
30.274418 6.336558 35.662369
25.730261 6.122426 35.726643
25.346611 6.110879 35.735245
57.637970 6.231598 36.408772
55.848026 6.308379 36.421906
46.732143 6.671611 36.218960
42.091125 6.714588 36.024105
41.113857 6.711429 35.990063
36.694023 6.613339 35.783089
34.871777 6.559791 35.736107
32.720688 6.463411 35.684486
30.019346 6.247857 35.672318
29.067709 6.214654 35.681034
57.503735 6.300617 36.421730
56.948414 6.309539 36.422161
46.807606 6.686485 36.187790
44.454960 6.711503 36.097004
43.945477 6.715489 36.052197
42.180515 6.712251 35.995148
37.428806 6.602792 35.772873
29.789000 6.214113 35.681255
29.269836 6.160007 35.704655
26.610758 6.084766 35.755417
56.145676 6.404336 36.416412
52.574368 6.539528 36.362988
49.665218 6.641016 36.268150
45.718067 6.712620 36.085423
44.296024 6.715189 36.042858
42.236160 6.705937 35.956879
41.258030 6.689624 35.904915
40.386505 6.659350 35.844578
39.223007 6.630564 35.803696
37.199791 6.579652 35.750927
29.916084 6.142546 35.714489
50.168072 6.664298 36.232979
49.058899 6.685738 36.189816
46.387398 6.711376 36.098312
44.258480 6.709924 35.980759
41.558250 6.666414 35.856228
37.577129 6.537603 35.720467
31.682667 6.214413 35.681133
27.294954 6.020163 35.828121
56.754368 6.435574 36.409801
52.117081 6.643253 36.264946
34.885281 6.272109 35.667313
32.768539 6.196151 35.688526
52.044418 6.662016 36.237350
43.476646 6.657705 35.841862
40.456524 6.577469 35.749298
37.917950 6.461903 35.683876
36.790054 6.315661 35.662380
27.604855 5.981900 35.900425
26.062567 5.960654 35.974316
52.985828 6.666042 36.229633
52.109333 6.688660 36.181877
48.866131 6.715223 36.043915
47.999378 6.712711 35.997997
27.144941 5.961801 35.967220
24.826687 5.954343 36.033100
52.056149 6.702001 36.142330
48.824306 6.710956 35.987137
46.537434 6.685888 35.896473
42.561890 6.567328 35.741730
37.060062 6.257616 35.669758
34.980915 6.163649 35.702602
34.518559 6.119773 35.728622
27.104462 5.955158 36.017590
26.042856 5.954776 36.063232
24.641630 5.960588 36.111256
53.208393 6.701377 36.145061
51.599007 6.713151 36.079910
44.928352 6.611491 35.781296
33.894421 6.083399 35.756744
30.799620 5.995893 35.868813
56.866367 6.649416 36.256306
48.254879 6.672113 35.865631
44.589096 6.574266 35.746906
43.744598 6.525538 35.713669
41.588455 6.438362 35.676693
35.399555 6.085203 35.754997
31.849413 5.986338 35.890400
24.982315 5.990813 36.205650
56.742348 6.678313 36.206169
43.616573 6.493296 35.696583
41.347794 6.288873 35.665154
35.084187 6.049007 35.791111
51.913677 6.703044 35.947132
49.547951 6.664928 35.853779
42.792988 6.402578 35.667980
27.575434 5.977259 36.172047
26.546211 6.000114 36.223152
56.480953 6.711178 36.100372
46.557468 6.514779 35.707611
45.372570 6.466864 35.685883
43.444202 6.402852 35.668015
43.332428 6.352095 35.662373
40.784115 6.166478 35.701008
30.776648 5.956705 36.083225
24.744404 6.082077 36.327305
55.911312 6.714969 36.035973
52.136280 6.664421 35.852940
43.582077 6.254725 35.670517
40.348911 6.108003 35.737408
27.915527 6.017739 36.252697
57.711044 6.714571 36.061935
55.474167 6.705426 35.955158
51.731274 6.630804 35.803997
51.008648 6.605966 35.775948
41.417137 6.107755 35.737591
51.713894 6.592312 35.762722
49.190834 6.499442 35.699070
41.838963 6.084100 35.756065
32.483341 5.969573 36.151161
30.347385 6.011096 36.243172
51.622528 6.548992 35.728046
50.200069 6.493659 35.696732
48.521008 6.445034 35.678444
47.835442 6.335742 35.662376
47.667835 6.285500 35.665588
40.088890 6.019229 35.829662
28.167727 6.119612 36.356220
26.463465 6.213064 36.402821
55.023224 6.595861 35.766159
54.236942 6.569418 35.743290
52.066971 6.489406 35.695011
51.180893 6.446147 35.678734
47.529858 6.187214 35.692142
44.727982 6.087564 35.752708
40.158260 5.977015 35.911674
37.986828 5.954214 36.047028
35.073612 5.978186 36.174564
25.521919 6.294590 36.421021
55.052242 6.563889 35.739162
53.058884 6.484488 35.693020
50.720669 6.402447 35.667961
50.247307 6.258690 35.669476
46.533520 6.115757 35.731621
39.052803 5.955273 36.013992
24.956619 6.367357 36.421833
53.619049 6.477629 35.690243
52.684483 6.422029 35.672409
49.515450 6.213978 35.681309
42.384583 5.968233 35.941273
32.874630 6.074062 36.319992
28.051592 6.296937 36.421169
24.705275 6.441372 36.408077
54.910561 6.479448 35.690979
41.207428 5.954699 36.031902
37.065437 6.001884 36.226547
36.288265 6.020722 36.256973
35.484016 6.046402 36.290623
57.593071 6.543752 35.724380
55.674110 6.475928 35.689552
32.325859 6.207502 36.400970
57.523880 6.500117 35.699528
53.924065 6.236347 35.675335
49.695072 6.087414 35.752853
47.443813 6.016336 35.834435
45.340477 5.971729 35.929489
40.490921 5.977520 36.172756
25.301825 6.539283 36.363224
56.219841 6.350665 35.662380
47.472473 5.996222 35.868069
54.099640 6.157867 35.705856
51.577332 6.069582 35.770126
47.694786 5.971451 35.930424
46.329086 5.961192 35.970989
33.177662 6.308462 36.421909
46.297699 5.954183 36.047981
42.787365 5.988488 36.200871
39.435154 6.081588 36.326401
27.568012 6.578219 36.334682
50.551212 5.986297 35.890491
45.450306 5.961614 36.116386
38.547112 6.148905 36.375103
34.875942 6.295703 36.421093
29.942490 6.543240 36.360573
29.516760 6.563057 36.347591
24.705994 6.683254 36.195621
53.685379 6.049439 35.790569
42.215977 6.058828 36.304306
35.509800 6.340972 36.423203
55.799850 6.082630 35.757488
54.536594 6.022004 35.825085
41.099983 6.143221 36.371590
26.525507 6.688532 36.182224
48.614044 5.966198 36.136471
46.342625 5.996116 36.215488
38.422276 6.292823 36.420906
56.901047 6.030046 35.814766
56.415527 6.021306 35.826237
53.764820 5.968993 35.938709
45.433289 6.058830 36.304310
39.383904 6.310197 36.422020
30.779411 6.648810 36.256977
25.401297 6.714860 36.032585
49.475189 5.979323 36.177654
46.395359 6.051416 36.296146
36.077904 6.492879 36.388466
32.838074 6.621634 36.292278
50.734215 5.971587 36.156635
48.400467 6.017765 36.252731
46.526371 6.096340 36.338959
40.115803 6.364375 36.421700
39.104961 6.402598 36.416752
33.764278 6.601174 36.314804
25.102156 6.704454 35.951378
55.405125 5.955244 36.014927
54.065723 5.954894 36.064449
53.159691 5.959782 36.108360
44.333256 6.229536 36.408287
40.616337 6.389352 36.419331
38.238197 6.478876 36.395210
57.296177 5.959977 35.976887
51.295979 6.010523 36.242352
42.931797 6.336648 36.423477
38.427742 6.538217 36.363842
30.968100 6.711347 36.098614
29.847780 6.714559 36.023182
29.235851 6.713290 36.001575
55.772251 5.955387 36.069561
54.301231 5.970868 36.154678
42.311966 6.391607 36.418892
40.458786 6.487189 36.391209
30.754837 6.714823 36.031437
24.564787 6.632918 35.806351
25.697178 6.381316 35.665253
55.555511 6.354189 36.422352
54.188457 6.358721 36.422062
50.980835 6.313096 36.422207
48.170841 6.370259 36.421322
45.610504 6.329944 36.423290
47.203571 6.360040 36.421978
39.753536 6.318384 36.422546
38.565971 6.308473 36.421909
38.793938 6.362788 36.421799
34.747028 6.359268 36.422028
30.839891 6.375912 36.420959
52.801582 5.958646 36.103348
50.054352 5.956510 36.081200
47.941078 5.954194 36.047646
44.083477 5.956490 36.080997
40.644875 5.954506 36.037910
31.608181 5.954319 36.043728
30.087345 5.954633 36.033955
30.316837 5.957233 36.088703
27.405409 5.957917 36.095783
25.559824 5.954108 36.050339
29.497980 5.956762 35.998390
31.363222 5.958099 35.990120
32.019070 5.955551 36.005882
38.318813 5.957729 35.992409
44.089256 5.957414 35.994358
49.063755 5.956961 35.997162
50.282074 5.958116 35.990013
54.513290 5.960607 36.111973
52.910564 5.967173 36.140739
46.248966 5.968137 36.144966
40.616520 5.968127 36.144920
37.713383 5.966510 36.137836
31.695969 5.969170 36.149490
31.321489 5.966724 36.138771
30.276514 5.965834 36.134872
50.778744 5.984506 36.191738
44.134735 5.981225 36.182823
42.187752 5.986189 36.196312
40.781300 5.979124 36.177113
36.508831 5.979913 36.179256
30.740524 5.985010 36.193108
56.399532 6.005119 36.232746
48.679104 6.008643 36.239502
35.762959 6.003300 36.229259
29.148476 6.001856 36.226494
28.322157 5.997423 36.217995
54.128117 6.025102 36.263252
46.795494 6.025324 36.263569
44.959892 6.056233 36.301449
40.380219 6.060606 36.306263
36.600445 6.050328 36.294949
31.594362 6.048107 36.292500
53.998554 6.100250 36.342289
37.647087 6.099133 36.341335
55.249775 6.138371 36.368431
54.426762 6.145071 36.372791
49.512188 6.122990 36.358421
51.368694 6.128317 36.361889
39.997219 6.115980 36.353855
31.602957 6.144034 36.372116
29.395542 6.145911 36.373341
26.126543 6.134975 36.366222
53.054321 6.180808 36.390465
35.724560 6.154991 36.378033
34.277569 6.186391 36.393154
29.228792 6.189989 36.394886
55.299423 6.234910 36.410072
54.347233 6.227276 36.407539
51.167797 6.207441 36.400951
47.633453 6.225647 36.406998
35.637928 6.206621 36.400681
34.526020 6.236108 36.410469
26.286600 6.213797 36.403061
47.064220 6.262997 36.415981
43.316269 6.280355 36.419361
42.387672 6.277194 36.418747
33.739559 6.255202 36.414467
29.121483 6.263883 36.416157
48.002739 6.407382 36.415821
38.820805 6.427863 36.411831
35.591637 6.418601 36.413635
32.551998 6.403944 36.416489
51.925667 6.461269 36.401226
45.192287 6.471272 36.397903
42.351627 6.440697 36.408058
39.520565 6.453773 36.403717
32.462612 6.455896 36.403011
31.436188 6.456192 36.402912
55.028561 6.513790 36.378399
52.921062 6.510150 36.380150
50.302979 6.506916 36.381706
45.636887 6.504502 36.382870
30.154617 6.507957 36.381207
26.988630 6.518453 36.376152
49.395039 6.530163 36.369083
47.015827 6.546781 36.358269
29.196835 6.536668 36.364849
56.687824 6.589614 36.324982
51.707466 6.595024 36.320377
31.950384 6.593107 36.322010
29.412354 6.594296 36.320999
28.130579 6.585319 36.328640
26.980751 6.589835 36.324795
49.341145 6.607381 36.307968
35.111412 6.631444 36.281475
34.040565 6.625676 36.287827
33.283089 6.626472 36.286949
32.293335 6.615890 36.298603
50.828465 6.652387 36.251850
50.003948 6.650584 36.254436
43.876755 6.654696 36.248539
30.368971 6.639498 36.270329
27.453312 6.644487 36.263176
55.065685 6.677136 36.208370
52.439007 6.664831 36.231956
40.867828 6.665667 36.230354
55.488258 6.688840 36.181389
37.219532 6.699389 36.152721
35.049351 6.687232 36.185757
29.104362 6.697401 36.158123
52.162773 6.704289 36.132305
49.985477 6.708665 36.113132
45.642178 6.708506 36.113831
38.864819 6.703636 36.135166
37.904034 6.702162 36.141624
30.368975 6.702611 36.139656
26.045492 6.710789 36.103828
53.651653 6.715302 36.057613
52.136551 6.714314 36.067856
50.245377 6.714492 36.066017
31.648724 6.713253 36.078865
28.379902 6.713453 36.076786
45.576851 6.714180 36.011368
40.994671 6.715359 36.048138
31.726961 6.715030 36.037903
33.495411 6.714097 36.008785
55.604893 6.706341 35.958591
53.976276 6.709208 35.976326
51.447002 6.711269 35.989079
47.999119 6.710727 35.985722
46.195412 6.708293 35.970673
43.103779 6.706810 35.961498
39.582264 6.710064 35.981621
38.955685 6.708295 35.970684
35.432732 6.708576 35.972416
34.287178 6.706807 35.961475
52.317955 6.699121 35.933914
31.990883 6.696204 35.924084
26.980730 6.693264 35.914181
55.113358 6.678080 35.878834
53.318611 6.677571 35.877686
47.086388 6.676545 35.875366
42.638916 6.680173 35.883564
39.712017 6.676828 35.876007
36.722889 6.675347 35.872662
35.777031 6.686567 35.898006
26.183905 6.682093 35.887897
54.387897 6.652112 35.832638
51.718628 6.648608 35.826855
49.788868 6.650182 35.829453
43.541840 6.652477 35.833241
32.305416 6.659291 35.844479
31.332710 6.657363 35.841297
29.982210 6.647843 35.825596
51.346218 6.642393 35.818527
50.214699 6.621934 35.792873
48.687756 6.620263 35.790775
47.493710 6.618074 35.788033
44.053719 6.629397 35.802231
43.051357 6.632206 35.805752
40.615891 6.632170 35.805710
47.146790 6.602942 35.773018
45.982315 6.590915 35.761368
43.643978 6.582323 35.753048
38.820679 6.600918 35.771057
34.510880 6.591765 35.762192
56.262871 6.554542 35.732189
51.356304 6.573343 35.746220
49.953968 6.548533 35.727703
32.469559 6.565503 35.740368
27.303164 6.572237 35.745392
25.969339 6.504991 35.702095
55.633968 6.460288 35.683224
46.449986 6.456147 35.681545
39.547974 6.455393 35.681240
36.765766 6.466470 35.685726
52.283878 6.418060 35.671368
46.171528 6.423813 35.672878
40.579754 6.420766 35.672077
38.830212 6.423711 35.672852
33.737457 6.419577 35.671764
29.055939 6.428537 35.674118
52.676056 6.385699 35.665802
42.493473 6.360071 35.662514
41.132030 6.373707 35.664268
34.940693 6.386042 35.665855
32.016987 6.375623 35.664516
31.094364 6.365308 35.663193
27.605947 6.398765 35.667492
51.537079 6.344031 35.662380
46.814102 6.313133 35.662384
46.026390 6.318592 35.662380
52.487717 6.291474 35.664818
48.976265 6.286088 35.665512
43.047112 6.282939 35.665916
42.044018 6.262114 35.668602
51.409466 6.218888 35.679916
44.446304 6.225765 35.678112
39.744125 6.225619 35.678150
37.725918 6.224952 35.678326
35.603077 6.233034 35.676205
55.154247 6.188356 35.691681
46.970444 6.189300 35.691299
44.021542 6.173045 35.697876
40.826324 6.186162 35.692570
38.436085 6.178508 35.695667
37.881672 6.206828 35.684204
35.818237 6.197782 35.687866
34.141308 6.177941 35.695896
30.106546 6.185338 35.692902
54.500717 6.137169 35.717518
41.551319 6.137963 35.717068
40.077023 6.127134 35.723167
37.902206 6.161325 35.703911
34.440155 6.154024 35.708023
30.029009 6.137981 35.717060
26.223866 6.132224 35.720303
56.146915 6.096213 35.746204
48.917629 6.100307 35.743149
44.788216 6.096453 35.746025
43.907158 6.102949 35.741177
43.108101 6.110521 35.735527
38.178604 6.097184 35.745480
36.552967 6.094272 35.747654
35.808350 6.094090 35.747787
34.472607 6.112287 35.734211
27.454468 6.120890 35.727791
25.504873 6.091027 35.750072
54.287231 6.074539 35.765324
53.071022 6.064547 35.775002
47.261513 6.062659 35.776829
39.905354 6.063284 35.776226
38.826530 6.057374 35.781948
52.952225 6.032118 35.812290
48.626305 6.026793 35.818970
44.978554 6.034906 35.808796
42.710976 6.025223 35.820938
40.953381 6.043321 35.798244
28.208284 6.033798 35.810184
55.189190 6.000898 35.859898
47.476849 6.000094 35.861225
26.982353 6.006332 35.850937
54.585510 5.995722 35.869198
49.923222 5.980112 35.904465
48.947659 5.978748 35.907543
43.571449 5.983945 35.895802
38.531044 5.984065 35.895535
37.771061 5.982613 35.898815
34.433212 5.982916 35.898129
49.894596 5.963666 35.956657
49.032864 5.970888 35.932323
36.471565 5.963735 35.956425
35.213459 5.966324 35.947701
24.345505 6.495988 41.884602
24.315060 6.351309 41.884602
24.211897 6.018521 41.884602
39.394611 6.327849 41.884602
44.343143 6.330409 41.884602
41.862423 6.333498 41.884602
55.433136 6.338983 41.884602
56.905910 6.331570 41.884602
37.524445 6.340592 41.884602
57.893696 6.615352 41.884602
57.982491 6.325344 41.884602
24.345041 6.163600 30.200600
24.120411 6.477744 30.200600
25.944351 6.323598 30.200600
31.317352 6.336299 30.200600
37.819901 6.334250 30.200600
43.917374 6.330929 30.200600
47.107433 6.328684 30.200600
45.948299 6.330009 30.200600
57.981804 6.039044 30.200600
24.096611 6.715768 36.731834
24.099897 6.715768 41.720093
24.182196 6.715768 39.921146
24.152311 6.715768 38.434750
24.248190 6.715768 41.716202
24.194693 6.715768 37.093540
24.192709 6.715768 38.294788
24.315414 6.715768 40.838444
24.312464 6.715768 37.066509
24.267141 6.715768 36.768391
24.186167 6.715768 33.576176
24.322027 6.715768 32.943951
24.191845 6.715768 34.881592
24.336985 6.715768 33.459549
24.290277 6.715768 33.627769
24.182184 6.715768 33.273262
24.213923 6.715768 30.765619
24.230064 6.715768 31.794584
24.153967 6.715768 30.836271
24.179655 5.953768 30.384436
24.123022 5.953768 31.954422
24.145962 5.953768 31.058968
24.289646 5.953768 30.904476
24.130976 5.953768 33.822006
24.310787 5.953768 31.577847
24.275753 5.953768 33.717426
24.308928 5.953768 32.833385
24.224367 5.953768 34.652565
24.288858 5.953768 35.918858
24.207769 5.953768 36.866253
24.281158 5.953768 40.436806
24.236504 5.953768 36.411041
24.164331 5.953768 38.004887
24.258265 5.953768 39.716949
24.202271 5.953768 40.468433
24.301582 5.953768 41.675144
24.269178 5.953768 40.310429
24.097448 5.953768 38.407574
24.126394 5.953768 40.973297
24.114586 5.953768 36.027710
-6.178431 6.347468 37.944195
-15.204869 6.347468 40.318054
-9.787685 6.347468 37.255760
-13.923630 6.347468 39.981083
0.616299 6.347468 38.507381
-3.263133 6.347468 38.594196
-11.424053 6.347468 37.483349
2.429146 6.347468 38.642506
-9.070659 6.347468 38.130722
-1.991642 6.347468 38.763435
-13.818409 6.347468 41.178303
7.196714 6.347468 37.953747
3.656965 6.347468 37.276192
-6.902470 6.347468 40.561996
-2.410235 6.347468 38.963070
-14.367794 6.347468 37.415390
-12.214682 6.347468 38.169487
-11.561823 6.347468 40.723736
3.204298 6.347468 37.253159
1.580326 6.347468 38.769016
0.581236 6.347468 38.983402
-10.732100 6.347468 40.533432
-5.176032 6.347468 39.491039
-13.222315 6.347468 39.984245
-13.897602 6.347468 37.753983
1.381941 6.347468 37.878590
-7.773955 6.347468 38.660706
3.941879 6.347468 38.656208
-16.145658 6.347468 41.486980
2.923407 6.347468 37.270329
-3.884044 6.347468 37.352093
-11.069385 6.347468 37.243156
-12.473051 6.347468 40.041012
-9.260744 6.347468 37.834427
-14.773417 6.347468 39.348114
-9.175117 6.347468 39.767921
-9.329525 6.347468 39.870365
-9.424261 6.347468 38.693779
-8.575516 6.347468 37.203331
-12.456230 6.347468 39.374622
-10.222307 6.347468 39.002983
-12.115562 6.347468 40.620689
8.590366 6.347468 38.168015
-13.641062 6.347468 38.153896
-6.840794 6.347468 38.729744
-11.210625 6.347468 40.253021
-11.805243 6.347468 40.996483
-3.815401 6.347468 38.475975
5.403545 6.347468 37.984577
-5.760622 6.347468 38.050533
-15.190368 6.347468 38.349705
7.068796 6.347468 37.522377
-4.910450 6.347468 37.204090
-10.844000 6.347468 41.009041
2.137608 6.347468 39.214890
9.282753 6.347468 37.480309
-3.280255 6.347468 38.205910
-0.829172 6.347468 39.085709
-3.856167 6.347468 37.587814
2.634180 6.347468 37.611252
10.894308 6.347468 37.918030
-14.674751 6.347468 40.315552
-1.664235 6.347468 37.614574
6.732164 6.347468 38.185616
8.042406 6.347468 37.575596
-6.421823 6.347468 37.334793
-16.171310 6.347468 39.156712
-14.616883 6.347468 39.690269
-4.513851 6.347468 37.642483
4.256178 6.347468 38.453789
-12.130072 6.347468 40.546818
-9.217554 6.347468 38.621235
-8.976862 6.347468 40.281784
1.395863 6.347468 38.642273
-3.909842 6.347468 39.741837
-15.404581 6.347468 41.325516
1.876379 6.347468 37.409821
-13.015898 6.347468 37.917759
1.189411 6.347468 37.274689
0.813658 6.347468 37.952869
-15.272893 6.347468 37.353664
-1.416489 6.347468 39.080772
-6.249758 6.347468 40.478874
-15.586099 6.347468 38.578407
-8.365141 6.347468 39.040207
-4.704823 6.347468 39.939590
-3.576820 6.347468 38.416355
4.582705 6.347468 37.926949
-3.329953 6.347468 38.726364
-10.770903 6.347468 40.039734
-11.420918 6.347468 40.213478
-10.643320 6.347468 37.551033
-1.386412 6.347468 37.832005
-10.029219 6.347468 40.958881
4.811287 6.347468 38.644135
3.921354 6.347468 37.635685
-2.568374 6.347468 38.635574
-0.751694 6.347468 37.244797
-10.420252 6.347468 37.324398
-14.089591 6.347468 37.307465
-14.834192 6.347468 38.182316
-4.646645 6.347468 38.361866
6.145613 6.347468 38.447605
5.524511 6.347468 37.892559
-3.025494 6.347468 40.017277
-13.626911 6.347468 39.306187
16.717272 6.347468 37.249310
-4.369540 6.347468 38.060120
4.553688 6.347468 38.363197
-3.709855 6.347468 39.676048
-9.083970 6.347468 39.628147
8.544878 6.347468 37.960392
15.021019 6.347468 37.232132
0.023905 6.347468 38.696457
-0.643141 6.347468 39.216877
-5.998809 6.347468 37.330677
15.464552 6.347468 37.249432
-1.172912 6.347468 39.756821
-10.789642 6.347468 37.992195
-6.754359 6.347468 38.863346
-1.023602 6.347468 38.343315
-8.807714 6.347468 38.909863
-8.117852 6.347468 40.090961
-12.266341 6.347468 40.377598
-3.388057 6.347468 39.157200
-2.814814 6.347468 38.478535
3.703106 6.347468 38.237366
-5.939296 6.347468 37.278240
-5.991136 6.347468 38.500263
-10.203748 6.347468 39.963497
1.215321 6.347468 39.345612
-13.996444 6.347468 41.204216
-15.232216 6.347468 40.181347
3.287422 6.347468 37.729172
12.591597 6.347468 37.586754
-0.757697 6.347468 39.275356
-2.162842 6.347468 39.878235
-11.491470 6.347468 39.284901
-8.775682 6.347468 40.782749
-9.151343 6.347468 40.423615
0.644064 6.347468 38.455223
5.496613 6.347468 38.067665
6.660004 6.347468 37.924351
6.187004 6.347468 38.234898
-9.186323 6.347468 39.150524
-15.964605 6.347468 37.761501
-14.780193 6.347468 39.389835
-7.348357 6.347468 38.442928
-10.581892 6.347468 40.342583
-4.425917 6.347468 37.686092
-11.536064 6.347468 38.353626
2.616556 6.347468 38.252666
-4.191811 6.347468 38.013439
-2.567032 6.347468 38.509235
3.035011 6.347468 37.546112
-9.686775 6.347468 39.088604
5.886597 6.347468 37.546230
-16.048651 6.347468 38.076237
-0.940004 6.347468 39.642639
15.415255 6.347468 37.393322
-14.497955 6.347468 38.985596
1.953974 6.347468 38.104801
-8.414196 6.347468 38.930454
7.516764 6.347468 38.308006
-15.574265 6.347468 38.445320
-4.439971 6.347468 38.062183
2.393074 6.347468 38.230991
1.715609 6.347468 38.089695
-7.725163 6.347468 40.646248
-6.877064 6.347468 39.163055
1.955065 6.347468 38.517780
-16.190615 6.347468 40.967876
-4.448634 6.347468 40.169952
-13.988976 6.347468 39.669758
9.721926 6.347468 37.722355
-6.633906 6.347468 39.902340
12.720936 6.347468 37.644085
8.027927 6.347468 38.371265
-14.181585 6.347468 40.132530
-11.206851 6.347468 40.313736
-9.416805 6.347468 40.855099
-6.697493 6.347468 39.217926
12.675436 6.347468 37.759262
-3.613531 6.347468 38.901550
4.812899 6.347468 38.754696
-12.598103 6.347468 39.041061
-12.478846 6.347468 40.022884
-7.356391 6.347468 39.963669
-14.030972 6.347468 39.097271
-5.105541 6.347468 38.590153
9.462452 6.347468 37.547009
-12.499121 6.347468 41.327759
-4.301969 6.347468 38.991966
7.530611 6.347468 37.222157
-9.613031 6.347468 40.511776
-15.219042 6.347468 41.460693
-14.909323 6.347468 38.657234
10.356430 6.347468 37.708702
15.681498 6.347468 37.224487
2.416861 6.347468 38.232216
-13.730852 6.347468 40.383999
-14.546747 6.347468 38.557087
6.927259 6.347468 37.998562
-1.136684 6.347468 37.831455
0.067978 6.347468 38.875252
2.510069 6.347468 38.571156
-7.045931 6.347468 39.699970
-3.470119 6.347468 38.452099
2.684906 6.347468 38.096439
-15.728180 6.347468 38.185513
-11.631248 6.347468 40.918236
-8.462838 6.347468 37.588089
4.766479 6.347468 37.819885
3.526497 6.347468 38.809582
5.790964 6.347468 37.723343
-12.365281 6.347468 39.624645
-3.446679 6.347468 39.501846
-13.853941 6.347468 40.987736
10.469971 6.347468 38.082272
-15.865210 6.347468 37.796452
-12.036685 6.347468 39.619518
-1.330281 6.347468 37.465870
3.229416 6.347468 39.051086
-8.341173 6.347468 40.738632
-15.893887 6.347468 41.008862
-9.767020 6.347468 38.941776
-14.329100 6.347468 40.511650
-15.006894 6.347468 39.454624
-13.094313 6.347468 38.285641
-5.585294 6.347468 37.755409
3.061071 6.347468 37.557163
-14.607748 6.347468 38.879738
-14.129947 6.347468 39.263496
-9.368437 6.347468 37.273003
-5.032856 6.347468 38.402206
-2.432828 6.347468 37.941437
-2.952991 6.347468 37.198044
-7.136480 6.347468 40.210365
2.235212 6.347468 37.242775
7.333298 6.347468 37.815926
-8.877021 6.347468 37.285416
-1.694567 6.347468 37.304199
-15.549650 6.347468 40.082954
-13.719434 6.347468 37.862747
8.458126 6.347468 38.042625
-11.133116 6.347468 39.231689
-4.096172 6.347468 38.234127
3.641911 6.347468 37.796028
-12.160727 6.347468 41.317154
-6.135081 6.347468 39.346127
1.797829 6.347468 37.726227
-10.032659 6.347468 37.205235
-9.779257 6.347468 38.162304
0.212908 6.347468 37.882866
-11.940495 6.347468 38.234421
-7.549417 6.347468 38.296196
-6.719536 6.347468 38.121407
-11.166437 6.347468 37.666245
-3.645213 6.347468 38.327618
-15.248651 6.347468 40.886070
-14.698097 6.347468 37.676571
-12.055815 6.347468 39.790070
-13.774980 6.347468 40.378578
-4.815044 6.347468 38.038136
-5.253821 6.347468 39.555096
-9.347219 6.347468 40.759293
-14.159131 6.347468 39.350536
-5.354922 6.347468 39.431568
-14.466997 6.347468 38.884953
-8.893600 6.347468 37.790291
-7.105394 6.347468 40.463703
-7.893864 6.347468 39.232849
-14.741561 6.347468 39.751266
10.141815 6.347468 37.301537
9.286301 6.347468 37.353451
-11.459930 6.347468 40.946430
6.323610 6.347468 37.732460
-7.561926 6.347468 39.925083
4.754610 6.347468 38.827019
-13.540968 6.347468 40.193672
-13.231977 6.347468 40.190754
-10.166824 6.347468 38.333691
1.721390 6.347468 39.110500
-12.708047 6.347468 41.369392
10.402658 6.347468 37.264519
5.639568 6.347468 37.661800
8.077173 6.347468 37.907146
3.649691 6.347468 37.936100
-13.872122 6.347468 38.836105
-8.203907 6.347468 40.528187
-10.590019 6.347468 38.960648
-12.675772 6.347468 37.689877
-3.920328 6.347468 39.550724
-8.355768 6.347468 38.256145
-9.519882 6.347468 37.689655
-1.409164 6.347468 38.626801
0.383911 6.347468 39.342457
-8.159767 6.347468 39.613514
-15.053308 6.347468 37.836002
-8.774591 6.347468 39.163757
-2.924192 6.347468 39.480633
-0.673836 6.347468 37.577797
8.266815 6.347468 37.720032
7.241653 6.347468 38.248924
-13.741006 6.347468 38.451202
-1.602096 6.347468 37.359280
-12.932650 6.347468 38.960461
-3.929326 6.347468 37.750729
-11.006994 6.347468 38.542984
-4.742199 6.347468 38.478970
-15.268094 6.347468 38.619366
-14.782162 6.347468 37.867439
2.013285 6.347468 38.573853
-14.266371 6.347468 40.769539
-7.750279 6.347468 37.244438
4.616011 6.347468 37.722763
-11.716379 6.347468 37.837429
-0.381196 6.347468 37.579556
9.205803 6.347468 38.226883
5.078524 6.347468 37.560699
10.685413 6.347468 37.868622
4.389168 6.347468 37.410797
-14.137949 6.347468 41.044273
4.919825 6.347468 38.883888
-10.636143 6.347468 40.046059
-5.399722 6.347468 38.876751
7.585741 6.347468 37.718529
-1.862690 6.347468 39.239361
-0.454041 6.347468 38.625786
-12.929641 6.347468 37.986084
10.245489 6.347468 38.061638
-9.592562 6.347468 40.656864
-15.970316 6.347468 37.968102
-13.736434 6.347468 38.192215
-1.611914 6.347468 38.296505
-7.160222 6.347468 38.256836
-10.175747 6.347468 40.128155
-14.935742 6.347468 40.884361
-15.666576 6.347468 40.648785
-13.122179 6.347468 40.841400
-13.170652 6.347468 38.736336
-3.978708 6.347468 38.316025
4.395960 6.347468 37.393589
-10.152208 6.347468 38.757259
-7.523741 6.347468 39.252884
-9.284550 6.347468 39.841881
-12.849437 6.347468 40.799927
-4.502915 6.347468 37.345005
0.416582 6.347468 39.247864
-3.891663 6.347468 39.389202
-14.643234 6.347468 39.293205
-12.830177 6.347468 40.767136
-9.872181 6.347468 37.805588
-5.428609 6.347468 38.680798
-4.482313 6.347468 38.359367
-8.880877 6.347468 38.745041
-7.126876 6.347468 37.750504
10.397432 6.347468 37.562588
-6.473320 6.347468 39.689442
-11.246836 6.347468 38.204987
-13.059115 6.347468 39.715923
11.023504 6.347468 37.807213
6.461004 6.347468 38.261257
-14.477116 6.347468 40.151794
-13.307356 6.347468 39.317146
5.598509 6.347468 38.510220
-7.769840 6.347468 37.575790
-0.191082 6.347468 38.664783
4.715868 6.347468 38.354519
-3.716845 6.347468 37.204300
-12.467932 6.347468 38.195126
10.563175 6.347468 37.334686
-5.993767 6.347468 39.801392
-9.610807 6.347468 39.173462
-7.371268 6.347468 40.419415
-9.001954 6.347468 39.938957
12.655806 6.347468 37.641281
4.562901 6.347468 37.716248
9.200108 6.347468 37.233589
-9.215041 6.347468 40.403332
-9.215471 6.347468 40.499790
-2.876167 6.347468 39.502430
-6.527254 6.347468 39.430248
-8.492479 6.347468 40.573277
-11.361922 6.347468 39.092869
-6.545051 6.347468 37.896866
-8.836116 6.347468 40.572296
-10.744900 6.347468 37.695534
-0.694195 6.347468 38.177422
-2.585846 6.347468 38.522690
-15.041801 6.347468 41.086582
-11.198982 6.347468 38.413189
-15.216416 6.347468 38.097641
-12.118439 6.347468 41.253227
-9.499545 6.347468 38.652882
-5.133684 6.347468 40.049038
1.883343 6.347468 38.199574
-14.838781 6.347468 38.303890
-6.348026 6.347468 39.282288
-14.881771 6.347468 38.762093
-1.515854 6.347468 39.296257
-14.318348 6.347468 40.431660
-2.048798 6.347468 38.533474
-16.016756 6.347468 39.075897
3.931587 6.347468 37.509769
-10.861349 6.347468 39.628201
-1.658682 6.347468 38.608658
-14.891790 6.347468 39.826756
-5.814723 6.347468 40.168034
-14.610289 6.347468 37.836544
2.037563 6.347468 37.841396
-9.791605 6.347468 39.341129
6.709784 6.347468 38.112545
-12.635245 6.347468 39.133274
-10.752739 6.347468 40.556328
-12.855293 6.347468 40.328148
5.812880 6.347468 37.490330
-7.850864 6.347468 39.507511
-1.549397 6.347468 39.367207
-5.529157 6.347468 37.202087
-9.548868 6.347468 40.418617
3.058422 6.347468 38.248642
4.368832 6.347468 37.291870
-0.488894 6.347468 38.542080
10.677963 6.347468 37.747013
7.067907 6.347468 37.769928
-15.600740 6.347468 39.688507
0.017292 6.347468 37.559189
9.730244 6.347468 38.234638
-6.017532 6.347468 38.870960
-13.167308 6.347468 38.838833
10.166473 6.347468 37.590317
-5.185846 6.347468 37.927254
8.502893 6.347468 37.646690
8.844370 6.347468 37.391232
3.514717 6.347468 38.347561
-3.791886 6.347468 39.860565
-10.618448 6.347468 38.313656
13.833778 6.347468 37.468189
-13.551162 6.347468 41.450397
-16.066418 6.347468 41.643425
0.717237 6.347468 37.797123
-8.900688 6.347468 37.828026
-1.523095 6.347468 39.302467
-3.478295 6.347468 37.696453
-10.506155 6.347468 37.941853
0.081688 6.347468 38.000069
-15.977056 6.347468 38.235432
-9.343174 6.347468 40.269146
0.050758 6.347468 37.988117
-5.424514 6.347468 39.080185
-8.932877 6.347468 40.638355
-5.962691 6.347468 37.838448
-11.389612 6.347468 38.800415
-10.733602 6.347468 39.735397
9.545189 6.347468 37.717655
6.182644 6.347468 38.717163
-7.383590 6.347468 39.140148
-13.614681 6.347468 39.321636
-10.580330 6.347468 37.252789
-2.362734 6.347468 38.387753
-7.642134 6.347468 39.869125
-1.141212 6.347468 39.379681
-7.706333 6.347468 38.181881
-7.650117 6.347468 38.523205
-2.611412 6.347468 38.505375
11.849106 6.347468 37.744034
0.804636 6.347468 37.238724
-3.000658 6.347468 38.166157
-0.271823 6.347468 38.937904
-9.873625 6.347468 37.780582
-8.035139 6.347468 40.385227
2.168884 6.347468 38.836376
-3.614378 6.347468 38.526222
-0.176283 6.347468 38.186054
-8.648315 6.347468 39.783688
2.424465 6.347468 37.488068
-11.725620 6.347468 39.700745
1.173063 6.347468 38.882111
-3.332020 6.347468 38.474804
-9.803700 6.347468 38.381287
-9.654556 6.347468 37.872429
-16.056753 6.347468 39.345589
-15.396418 6.347468 39.281166
-14.646714 6.347468 40.966141
-9.843740 6.347468 39.993549
6.628145 6.347468 37.432888
-6.332403 6.347468 37.343990
-4.508075 6.347468 37.807129
-9.849162 6.347468 37.902634
-6.029543 6.347468 37.521397
7.926291 6.347468 37.942471
-14.641180 6.347468 38.257912
-13.887572 6.347468 38.293232
-6.249286 6.347468 38.239746
-15.715875 6.347468 40.625477
16.078924 6.347468 37.268417
-7.900166 6.347468 40.644688
-11.441540 6.347468 39.638191
3.438658 6.347468 38.303307
10.554703 6.347468 38.092545
-11.938993 6.347468 38.638653
-10.051537 6.347468 39.127396
-15.557037 6.347468 38.515789
2.432899 6.347468 37.368958
5.869806 6.347468 38.778603
-10.300846 6.347468 40.474369
-10.924221 6.347468 39.241413
-11.904428 6.347468 39.894009
-5.872785 6.347468 40.024597
5.315676 6.347468 38.808212
1.848022 6.347468 38.144428
7.289742 6.347468 37.295647
-5.349716 6.347468 37.646160
-9.465618 6.347468 39.161655
-8.966888 6.347468 38.271004
-0.410707 6.347468 38.808311
2.052658 6.347468 37.557758
15.293224 6.347468 37.240883
-15.213857 6.347468 37.550117
12.907076 6.347468 37.738106
-7.769704 6.347468 39.903828
-5.143640 6.347468 38.239002
-14.383372 6.347468 41.580421
-2.846517 6.347468 37.625957
-11.303994 6.347468 39.504143
-9.268656 6.347468 39.857132
-10.168868 6.347468 40.421051
1.253582 6.347468 38.544609
-10.083115 6.347468 40.570587
-10.665121 6.347468 37.265175
-8.202694 6.347468 39.320496
-8.064921 6.347468 39.725204
0.430998 6.347468 38.354546
0.159613 6.347468 39.026234
-6.653884 6.347468 39.884964
-2.374239 6.347468 39.055855
-5.013824 6.347468 38.086704
-10.378537 6.347468 39.561916
-9.970440 6.347468 37.536991
-14.164627 6.347468 39.774197
-13.497533 6.347468 41.343746
-6.691904 6.347468 39.596481
-9.144138 6.347468 37.250385
-15.979050 6.347468 37.365166
-15.384315 6.347468 41.036217
-13.726164 6.347468 40.771442
-13.074242 6.347468 38.761726
-4.626922 6.347468 39.675396
-7.764876 6.347468 38.492371
-11.686016 6.347468 39.860725
0.252333 6.347468 38.550652
10.042786 6.347468 37.542767
-9.985773 6.347468 38.711639
-15.808125 6.347468 38.205036
0.350380 6.347468 39.386215
-1.808041 6.347468 37.653278
10.506889 6.347468 38.305866
6.080325 6.347468 41.244591
13.271309 6.347468 38.971790
9.738881 6.347468 40.448158
-3.397982 6.347468 40.817310
11.584459 6.347468 41.203480
16.714836 6.347468 41.038979
11.676372 6.347468 40.788445
2.787713 6.347468 39.671635
0.191839 6.347468 39.929150
-1.523592 6.347468 40.637150
-0.730381 6.347468 41.761707
-1.111483 6.347468 41.777004
6.668832 6.347468 41.710819
5.657659 6.347468 41.761921
4.260414 6.347468 41.185726
-12.594292 6.347468 41.852627
10.890387 6.347468 41.162651
7.980253 6.347468 40.172180
-1.290367 6.347468 39.905476
6.542296 6.347468 39.562618
13.060545 6.347468 37.850025
14.875850 6.347468 39.246758
-1.309931 6.347468 41.591488
-8.872559 6.347468 41.850880
-7.068567 6.347468 40.821945
8.711915 6.347468 39.683231
-14.736824 6.347468 41.818382
14.376336 6.347468 37.817482
8.994874 6.347468 41.592384
9.994120 6.347468 40.105110
13.123075 6.347468 37.855892
12.816923 6.347468 41.788223
12.743435 6.347468 41.545975
17.117493 6.347468 38.215466
-8.387686 6.347468 41.334667
15.197008 6.347468 39.969780
5.913375 6.347468 41.670605
14.137753 6.347468 38.519909
9.730828 6.347468 40.036827
0.153517 6.347468 40.149654
16.031101 6.347468 39.057865
11.020878 6.347468 41.481461
14.344900 6.347468 41.570774
14.530949 6.347468 41.167645
9.976980 6.347468 40.665840
16.912024 6.347468 39.321896
15.935735 6.347468 37.747471
12.596073 6.347468 39.638573
15.995479 6.347468 38.322655
13.301464 6.347468 39.895916
15.067243 6.347468 37.703728
-11.795309 6.347468 41.685104
-0.341171 6.347468 39.693378
-14.210587 6.347468 41.681343
-9.319410 6.347468 41.559380
