13.896561 2.675691 3.745994
13.837152 2.768133 2.870018
13.837636 2.767380 3.805696
13.889286 2.687011 4.194924
13.737690 2.922899 3.109113
14.991770 3.320577 3.795947
14.820675 3.586806 3.825684
14.837955 3.559919 3.777134
14.880071 3.494384 3.669976
15.016364 3.282307 2.604015
14.771102 3.663943 3.470927
14.988080 3.326318 2.593621
14.990679 3.322275 2.728943
14.561203 3.916027 3.812197
14.645447 3.840365 4.036398
14.684587 3.793961 2.588309
14.585890 3.896660 2.587310
14.537497 3.933063 3.957782
14.456563 3.979777 3.087719
14.368231 4.014379 3.854342
14.323380 4.026545 3.715357
14.311372 4.029345 2.571488
14.221931 4.041253 3.883751
14.179553 4.042444 3.547009
14.182188 4.042731 2.579983
14.099800 4.037461 2.925377
13.943171 3.996546 2.910603
13.655750 3.764200 3.344274
13.630810 3.725233 3.861687
13.586370 3.629948 3.205922
13.589014 3.636538 2.544491
13.547410 3.445435 3.753740
13.547291 3.366213 3.525132
13.553427 3.313419 4.143239
13.552140 3.323128 3.475003
13.569856 3.234723 2.670207
13.597965 3.157534 3.055897
13.602921 3.146559 3.400216
13.632732 3.088755 3.958984
15.035662 3.525109 2.573891
15.035662 3.286101 3.906696
15.035662 3.487313 2.898271
15.035662 3.633009 3.100278
15.035662 3.516491 3.937655
15.035662 3.642555 3.360982
15.035662 3.755933 3.417333
15.035662 3.706639 3.002611
16.305248 3.839845 4.229100
16.190163 3.945162 4.229100
15.533494 4.153067 4.229100
15.464586 4.034276 4.229100
15.245611 3.757949 4.229100
15.351117 3.389260 4.229100
15.174167 3.688009 4.229100
14.785633 3.192874 4.229100
14.690888 3.493252 4.229100
14.288869 3.124735 4.229100
14.136727 3.196724 4.229100
13.623254 3.240539 4.229100
14.218440 2.894501 4.229100
13.800290 2.928178 4.229100
13.666247 2.641021 4.229100
13.683415 2.425510 4.229100
13.476977 2.676920 4.229100
13.131288 2.867362 4.229100
13.635697 2.187423 4.229100
13.378946 2.448974 4.229100
13.135849 2.700486 4.229100
13.291206 2.380259 4.229100
13.025743 2.655389 4.229100
12.892334 2.068023 4.229100
13.181753 2.012792 4.229100
12.836308 1.932059 4.229100
13.377946 1.231725 4.229100
13.454854 0.860763 4.229100
12.840577 1.158379 4.229100
12.594477 1.029009 4.229100
12.487000 0.889347 4.229100
12.597674 0.848233 4.229100
12.396465 0.768361 4.229100
12.810436 0.623258 4.229100
12.602154 0.348243 4.229100
12.927467 0.358845 4.229100
13.323758 0.548594 4.229100
13.457794 0.141271 4.229100
13.649895 -0.106928 4.229100
13.778592 -0.391445 4.229100
13.103665 -0.701686 4.229100
13.156892 -0.911720 4.229100
13.431890 -1.019897 4.229100
13.689619 -0.829663 4.229100
13.653552 -0.954444 4.229100
13.556904 -1.135041 4.229100
14.539714 -1.147092 4.229100
14.660722 -1.287109 4.229100
14.871513 -1.223610 4.229100
14.414673 -1.804540 4.229100
15.237689 -1.915718 4.229100
15.355195 -1.541501 4.229100
15.809106 -1.175568 4.229100
15.966540 -1.299875 4.229100
15.876254 -1.665555 4.229100
16.056515 -1.964913 4.229100
16.213650 -1.459753 4.229100
16.360750 -2.084382 4.229100
16.565935 -1.701076 4.229100
16.771553 -1.666114 4.229100
17.023521 -1.712591 4.229100
17.080919 -0.703924 4.229100
17.164646 -0.950783 4.229100
17.791014 -1.083439 4.229100
17.953360 -1.138452 4.229100
18.135906 -1.097894 4.229100
17.804266 -0.691963 4.229100
17.670109 -0.412785 4.229100
18.114632 -0.306622 4.229100
17.800259 0.020170 4.229100
17.813030 0.271163 4.229100
18.465536 0.353236 4.229100
18.459845 0.559607 4.229100
18.616913 0.679388 4.229100
18.850800 0.779389 4.229100
18.772627 1.048952 4.229100
18.593451 1.219165 4.229100
18.008940 1.063349 4.229100
17.974140 1.187611 4.229100
17.885326 1.491258 4.229100
18.027937 1.818783 4.229100
18.323137 1.838034 4.229100
18.353842 2.075227 4.229100
18.319057 2.087603 4.229100
18.244602 2.748791 4.229100
17.559202 3.291137 4.229100
16.895422 3.001580 4.229100
17.610727 3.588069 4.229100
17.520119 3.694108 4.229100
17.070171 3.545187 4.229100
16.988289 3.399290 4.229100
16.877663 3.388227 4.229100
16.765482 3.414928 4.229100
17.642263 3.046508 4.229100
15.117537 3.641054 4.229100
16.305662 3.510907 3.994951
16.305662 3.335694 4.133443
16.305662 3.500767 4.087641
16.305662 3.641296 4.156792
16.305662 3.346196 2.678227
16.305662 3.716406 3.014166
16.305662 3.515721 2.792683
16.583612 3.295850 2.501900
17.323168 3.611499 2.501900
17.517271 3.553643 2.501900
17.018827 3.125526 2.501900
17.323296 3.231767 2.501900
17.561848 3.374347 2.501900
17.209183 3.082067 2.501900
15.975299 3.294367 2.501900
15.959560 3.319517 2.501900
16.163162 3.748941 2.501900
15.955413 3.577493 2.501900
16.082045 3.815277 2.501900
16.023823 3.979782 2.501900
15.800436 4.265606 2.501900
15.296947 3.915202 2.501900
15.203337 4.040656 2.501900
15.082730 4.068552 2.501900
14.574356 3.387136 2.501900
13.673997 3.727381 2.501900
14.214311 2.797160 2.501900
13.317019 2.779779 2.501900
13.339869 2.679924 2.501900
13.247159 1.724081 2.501900
13.191282 1.261542 2.501900
13.259627 1.230184 2.501900
13.113736 0.786536 2.501900
12.962320 0.741162 2.501900
12.531089 0.354346 2.501900
13.174733 0.585668 2.501900
13.654653 -0.043947 2.501900
13.285321 -0.476415 2.501900
13.316229 -0.499503 2.501900
13.832909 -0.390631 2.501900
13.603201 -0.565383 2.501900
13.601354 -0.590469 2.501900
14.135444 -0.678497 2.501900
14.195333 -0.822454 2.501900
14.270465 -0.747111 2.501900
14.718280 -1.134377 2.501900
14.496661 -0.920122 2.501900
15.520131 -1.647565 2.501900
15.801220 -1.137388 2.501900
16.161589 -1.165307 2.501900
15.923328 -1.849745 2.501900
16.131567 -1.454854 2.501900
16.174904 -1.496025 2.501900
16.072161 -1.936867 2.501900
16.395000 -1.271669 2.501900
16.687357 -1.832744 2.501900
16.811140 -1.874679 2.501900
16.625340 -1.171523 2.501900
17.453606 -1.099444 2.501900
17.711336 -1.135019 2.501900
17.809568 -1.199380 2.501900
18.000248 -1.257743 2.501900
18.086248 -1.141685 2.501900
17.615105 -0.677755 2.501900
18.103407 -0.207217 2.501900
17.707687 0.122418 2.501900
18.201666 0.267393 2.501900
17.896923 0.840436 2.501900
18.242773 0.939423 2.501900
18.357557 1.063489 2.501900
18.379835 1.317683 2.501900
18.237215 1.581497 2.501900
18.191206 1.882770 2.501900
18.402353 2.026412 2.501900
18.164316 2.157744 2.501900
18.718798 2.454129 2.501900
18.315384 2.784515 2.501900
17.997408 2.447229 2.501900
17.755703 2.232407 2.501900
17.671707 2.295448 2.501900
17.712332 2.587346 2.501900
18.532145 0.718947 2.501900
18.506243 0.691643 2.501900
18.523693 0.581041 2.501900
18.632689 0.490342 2.501900
18.662235 0.377309 2.501900
18.043655 -0.466473 2.501900
17.916018 -0.518903 2.501900
15.232744 -2.053820 2.501900
15.076621 -1.387729 2.501900
15.059351 -1.535530 2.501900
14.894507 -2.162140 2.501900
14.976151 -1.318198 2.501900
14.843683 -1.515264 2.501900
14.551123 -1.519910 2.501900
13.821704 -0.807862 2.501900
13.143614 0.995794 2.501900
12.759013 1.785419 2.501900
13.525451 1.984151 2.501900
12.682171 2.026605 2.501900
12.710587 2.091274 2.501900
13.324369 2.149392 2.501900
13.220947 2.205645 2.501900
13.161349 2.322374 2.501900
12.918842 2.545268 2.501900
12.851014 2.630831 2.501900
16.298353 3.939809 3.057182
16.275417 4.037910 2.955887
16.303793 3.888548 3.424387
16.211821 4.176694 4.037933
16.178934 4.226031 3.291190
16.150551 4.260879 3.937073
16.087988 4.323542 4.011782
15.978647 4.400662 3.046234
15.951543 4.414508 3.630166
15.863727 4.450114 2.519573
15.815589 4.463507 3.053451
15.747685 4.475551 3.899167
15.688693 4.479960 3.815718
15.692758 4.479526 2.565348
15.665607 4.479977 3.180306
15.637592 4.478945 2.503968
15.567290 4.471417 4.216124
15.467248 4.446444 3.636925
15.313292 4.370002 2.929169
15.147116 4.204622 3.053656
15.083807 4.087865 3.942188
15.057636 4.008398 3.132945
15.039206 3.911383 3.347398
15.036393 3.860453 3.018734
15.674750 2.004068 6.539692
16.154934 2.004068 6.574056
16.113951 2.004068 6.478816
16.202738 2.004068 6.827598
15.957112 2.004068 5.361260
16.241732 2.004068 6.069674
15.769403 2.004068 5.368900
15.793341 2.004068 5.314467
16.208725 2.004068 5.571057
14.921362 2.045975 5.900514
14.921362 2.049239 6.129993
14.921362 2.006521 6.262072
14.921362 2.430749 6.408785
14.921362 2.499768 4.954606
14.921362 2.480784 6.212888
14.921362 2.503815 6.178261
14.921362 2.523424 5.431536
14.921362 3.264400 6.333679
14.921362 3.226429 6.599047
14.921362 3.117235 7.401766
14.921362 3.242135 6.418851
14.921362 3.151493 6.134568
14.921362 3.237539 5.791656
14.921362 3.227239 5.793494
14.921362 2.656811 5.123180
14.921362 3.218503 4.798339
14.921362 2.629008 6.599977
14.921362 2.911197 5.603881
14.921362 2.908144 4.858184
14.921362 2.740847 6.261080
14.921362 2.754682 5.656272
14.921362 2.602621 5.764087
16.169861 2.038801 6.930833
16.389826 2.302607 7.194638
15.820163 2.243705 7.135736
15.819304 2.299683 7.191714
15.846820 2.194360 7.086391
16.244228 2.476257 7.368288
15.000584 2.051557 6.943589
15.310772 2.162477 7.054508
16.367655 2.873529 7.429500
15.847980 3.178762 7.429500
16.219608 3.173407 7.429500
15.326604 3.156885 7.429500
15.067160 2.670803 7.429500
15.913313 2.645247 7.429500
15.743155 2.877314 7.429500
14.955534 3.057965 7.429500
16.230299 3.324868 6.535818
16.315044 3.324868 6.277933
16.009310 3.324868 7.220561
15.737520 3.324868 5.987097
15.797174 3.324868 7.141815
15.336961 3.324868 6.787339
16.367649 3.324868 4.992151
16.270350 3.324868 5.063510
16.226946 3.324868 5.320004
15.521959 3.324868 6.499658
15.292322 3.324868 7.117146
16.187010 3.324868 5.839618
16.343163 3.324868 6.291730
16.047783 3.324868 6.615538
15.534429 3.324868 4.972641
16.302193 3.324868 4.765368
14.927158 3.324868 6.317014
15.346576 3.324868 6.396046
16.039606 3.324868 4.830595
14.927036 3.324868 6.476213
15.297826 3.324868 5.553708
15.871760 3.324868 5.599513
15.599167 3.324868 4.826886
15.446169 3.324868 5.484114
14.926053 3.324868 5.303365
16.029404 3.324868 5.086966
14.932958 3.324868 6.220344
15.564481 3.324868 5.067373
16.088667 3.117893 4.762500
15.353144 2.763473 4.762500
15.488326 2.807909 4.762500
15.847347 2.874128 4.762500
15.937433 3.141722 4.762500
15.346653 3.156837 4.762500
15.886573 3.309964 4.762500
15.348102 2.767342 4.762500
16.005630 2.156573 5.143395
16.410030 2.494534 4.805435
15.256890 2.303679 4.996289
15.771659 2.091297 5.208672
15.441620 2.495911 4.804058
15.390673 2.348113 4.951856
15.216434 2.269851 5.030117
15.440799 2.129879 5.170089
15.254318 2.004068 5.814150
15.652639 2.004068 6.190095
15.602147 2.004068 5.643615
15.100088 2.004068 5.516548
15.508582 2.004068 6.858388
15.029913 2.004068 6.568409
15.389661 2.004068 6.581687
15.136296 2.004068 6.487702
15.082341 2.004068 6.779715
16.419962 2.347131 6.795960
16.419962 2.340490 7.220644
16.419962 2.039488 6.818298
16.419962 2.449592 7.020000
16.419962 2.225709 5.727617
16.419962 2.503638 5.333273
16.419962 2.139283 5.814335
16.419962 2.197022 5.728666
16.419962 3.127059 5.287603
16.419962 3.096861 4.817819
16.419962 2.755041 5.094998
16.419962 3.209136 6.268551
16.419962 2.942870 5.093304
16.419962 3.081485 5.917770
16.419962 2.881161 5.406539
16.419962 3.228812 6.285101
16.419962 2.771319 7.161321
16.419962 2.675961 6.072722
16.419962 2.656054 6.744691
16.419962 3.006678 6.445279
16.419962 2.755046 6.787380
16.419962 2.843801 6.259085
16.419962 2.702577 7.355533
16.419962 2.573631 5.931762
16.535030 0.652607 5.936171
16.455318 0.404507 6.436871
16.457952 0.405532 6.508887
16.460451 0.487027 6.790817
16.537472 1.489596 7.020743
16.518183 1.676426 6.110054
16.585062 1.108977 5.877738
16.585062 1.272884 5.876699
16.585062 1.317160 6.304751
16.585062 1.465092 6.357853
16.585062 0.939343 7.106521
16.585062 0.690330 6.571050
16.585062 0.823685 6.824038
14.827595 1.173405 7.207780
15.171916 1.823463 7.142469
15.327225 1.738406 7.391159
15.551550 1.993431 7.103449
16.303869 1.696509 7.159145
16.441771 1.211427 7.316368
16.475876 1.003993 7.268785
16.280876 0.521297 7.229018
16.416544 0.594657 7.129355
16.122917 0.448694 7.309821
15.970040 0.332387 7.261548
15.634602 0.332260 7.352353
15.684152 0.304184 7.308114
15.146119 0.546462 7.357127
15.000731 0.842771 7.424075
15.199175 0.891432 7.429500
15.711290 0.605532 7.429500
16.250881 1.071535 7.429500
15.965307 1.210244 7.429500
16.178993 1.470110 7.429500
15.861871 1.574244 7.429500
15.373813 1.665593 7.429500
15.674411 1.174336 7.429500
15.155766 1.453192 7.429500
15.682189 2.003592 5.568533
15.698832 2.003008 6.637275
15.352073 1.946151 6.077205
15.185155 1.864197 6.346298
14.967119 1.672775 6.109221
14.846163 1.484311 6.585251
14.757025 1.116644 6.471897
14.929165 0.555430 6.368134
15.731394 0.177780 5.957293
15.991045 0.233838 6.142600
16.575218 1.221101 5.140980
16.570297 1.252621 5.460016
16.562033 1.290833 4.897141
16.515978 1.437138 5.124738
16.483860 1.507109 5.223113
16.380365 1.665657 5.155789
16.223682 1.817571 6.436642
16.342915 1.709494 5.110917
16.112272 1.889755 6.761353
16.061651 1.915475 5.895968
16.050873 1.920710 6.840760
15.921376 1.968818 6.787827
15.913259 1.970692 5.324369
15.861243 1.983565 6.487932
15.771848 1.997745 5.087819
15.520061 1.991577 5.266452
15.491416 1.985571 4.830515
15.181911 1.861954 5.329566
15.126362 1.823636 5.196007
14.854221 1.499817 5.130242
14.790206 1.334173 5.125046
14.776029 1.274969 5.385901
14.777942 0.895242 5.455412
14.897497 0.602394 4.953861
15.107851 0.369074 5.862103
16.013908 0.242896 5.204258
16.184732 0.334117 4.844292
16.288458 0.415643 5.494197
16.331663 0.458035 6.188736
15.441957 1.974828 5.865842
15.144304 1.836447 5.926161
14.758198 1.136476 5.393213
14.757165 1.067841 5.562955
14.776580 0.901738 5.829139
14.785884 0.859679 5.946785
14.828973 0.733393 5.956130
14.968155 0.505501 5.706319
15.014038 0.454241 5.465306
15.082686 0.390387 5.827551
15.123546 0.357712 5.115877
15.309939 0.249715 5.262289
15.476573 0.196878 5.801710
15.713246 0.177030 5.531301
15.756344 0.179660 5.909681
15.831331 0.189871 5.456905
16.418528 0.564731 4.913539
16.556927 0.864987 5.629721
16.583406 1.040485 5.302253
16.284460 0.412844 7.074292
16.096949 0.281136 6.603042
15.752839 0.179713 7.064064
15.388289 0.220477 6.838926
15.046281 0.422338 6.763953
14.958460 0.517031 6.898449
14.786134 1.320193 6.463635
14.842813 1.476813 7.061922
14.859664 1.511594 6.453274
14.909432 1.595699 6.466467
15.012568 1.723730 7.088539
15.244343 1.898168 6.588580
15.299511 1.924653 6.918201
15.597995 2.000624 6.763925
16.326468 1.726695 6.965035
14.722372 0.935942 4.773592
14.668590 0.377973 4.543106
14.730235 0.416266 4.605346
14.781386 0.300337 4.577475
16.796717 0.795731 4.599292
16.927931 1.066619 4.518757
16.906506 1.177752 4.534305
16.702730 1.281006 4.697009
16.608341 1.493652 4.721818
16.682894 1.733859 4.568086
16.584162 1.766833 4.621878
16.559267 1.853017 4.592321
16.459351 1.886729 4.635462
15.672318 2.082943 4.745555
15.388766 2.108583 4.690581
15.102008 2.141800 4.571568
15.390260 0.181744 4.782017
15.891766 0.017387 4.658270
16.542181 0.752188 4.795369
16.206362 1.957260 4.722708
16.100111 2.089885 4.663937
15.271936 1.923304 4.804376
15.144631 1.951289 4.731248
14.588423 1.463724 4.615241
14.608113 1.350705 4.658909
16.194130 3.241563 4.231369
15.916867 2.932245 4.335674
15.779085 3.253709 4.245234
15.702126 2.763618 4.389783
14.913451 3.107473 4.248715
14.848305 3.008282 4.268686
14.871985 2.540726 4.395090
14.798757 2.423725 4.413484
14.853047 2.212294 4.473475
14.144660 2.511156 4.269198
14.049428 2.463554 4.257519
13.948038 2.097915 4.295486
13.694713 2.011268 4.241306
14.287762 1.533833 4.454796
13.613357 1.595046 4.259404
13.468415 1.335361 4.230920
14.003466 1.279227 4.388718
13.566876 1.056730 4.263686
14.047280 0.996128 4.403971
13.631583 0.674430 4.270457
14.085799 0.606664 4.394916
13.953788 0.519982 4.350313
13.763644 0.397590 4.285759
13.958302 0.362966 4.335207
14.335574 0.444532 4.445879
14.241086 0.277431 4.398627
14.047726 -0.130056 4.285461
14.181023 -0.262973 4.290687
14.150062 -0.413829 4.253567
14.574935 -0.536456 4.305717
14.716150 -0.787410 4.263103
14.768640 -0.871576 4.247607
15.056112 -0.598200 4.354065
15.285196 -0.665328 4.353814
15.409514 -0.185322 4.499058
16.109509 -0.887975 4.286613
16.077009 -0.618492 4.365852
16.474951 -0.786625 4.282188
16.535076 -0.608794 4.321887
16.610434 -0.489507 4.341841
16.623203 -0.271122 4.393723
16.859213 -0.407674 4.320221
17.195412 -0.397419 4.256058
16.884819 0.548082 4.490841
17.534021 0.549895 4.311789
17.570469 0.562762 4.302611
17.280617 1.157213 4.408313
17.546247 1.272666 4.328122
17.102781 1.333088 4.454861
17.766350 1.583272 4.249304
17.093418 1.549283 4.442394
17.419708 2.270735 4.261897
16.878773 2.202538 4.399204
17.066647 2.503628 4.298042
16.862734 2.574358 4.322408
16.613504 2.456539 4.393831
16.654579 2.658467 4.337740
16.521166 2.799925 4.320653
16.431131 3.052150 4.263433
16.263617 2.768695 4.358693
16.177073 2.734831 4.375969
15.264201 2.723512 4.387073
14.893603 2.604480 4.381447
14.702381 2.329512 4.419528
14.182419 1.148116 4.443954
13.966176 0.810284 4.374279
14.014777 0.416797 4.356605
15.073177 -0.940103 4.260312
15.570555 -0.641924 4.372048
16.876120 0.668986 4.506344
17.632874 1.203535 4.304418
17.083874 1.807274 4.416077
17.003506 2.207596 4.370629
16.292032 2.446036 4.443249
15.027764 2.154362 2.197100
15.714968 2.272708 2.197100
16.318111 2.161809 2.197100
16.456161 1.899385 2.197100
16.671188 1.854257 2.197100
16.907831 1.252660 2.197100
16.922911 0.985044 2.197100
16.868891 0.820144 2.197100
16.568195 0.293194 2.197100
16.132698 0.203728 2.197100
15.370480 -0.021320 2.197100
15.245925 -0.065657 2.197100
15.116903 0.075722 2.197100
14.428688 1.030835 2.197100
16.417004 1.802363 2.197100
16.643398 1.739688 2.197100
16.675243 0.922165 2.197100
16.069899 0.176882 2.197100
14.729766 0.612483 2.197100
14.351871 1.022441 2.213457
14.395226 0.812941 2.208356
13.808350 0.586813 2.408097
14.471210 0.672997 2.197221
13.919886 0.266371 2.409960
14.221176 0.259415 2.325366
14.079472 -0.220539 2.450396
13.988079 -0.002699 2.432781
14.561262 0.157814 2.254392
14.261561 -0.173943 2.396519
14.813306 -0.588120 2.393875
14.630210 -0.467730 2.390199
14.617250 -0.806371 2.484856
15.082345 -0.315855 2.278451
15.226377 -0.971623 2.465690
15.131403 -0.975346 2.473894
15.490381 -0.285094 2.234604
15.597861 -0.291046 2.233389
15.396200 -1.114333 2.501530
15.990926 -0.676599 2.365272
16.051939 -0.284773 2.247175
16.294563 -0.954001 2.474494
16.479572 -0.849520 2.463182
16.142633 -0.265876 2.250051
16.328346 -0.075023 2.218952
17.001331 -0.640414 2.489323
16.928589 -0.178084 2.362340
16.965036 -0.344840 2.409106
17.102684 -0.068216 2.380070
17.390177 -0.176132 2.473980
17.300364 -0.073020 2.431484
17.243441 0.276732 2.357342
17.312372 0.580558 2.340898
17.493385 0.426586 2.411572
17.524284 0.824637 2.390051
16.993086 1.248529 2.217065
17.110670 1.497104 2.269789
17.675299 1.968170 2.491284
17.267035 1.838593 2.355025
17.315651 1.968331 2.387606
17.374846 2.254765 2.451440
16.981400 2.082399 2.316976
16.925602 2.124335 2.311274
17.196127 2.638071 2.486398
16.769758 2.315321 2.317657
16.832291 2.560300 2.390443
17.018373 2.705462 2.464211
16.408897 2.477144 2.293679
16.329889 3.163819 2.487363
15.833358 2.763191 2.328897
15.573148 2.623260 2.282649
15.527090 3.133926 2.446656
15.433072 2.382651 2.211591
15.322355 2.435485 2.235764
15.190649 2.639090 2.309794
15.133664 2.970737 2.416901
15.000934 2.407810 2.264049
14.875942 2.738606 2.376490
14.671954 2.188560 2.266000
14.715860 2.115217 2.239300
14.415835 2.069242 2.300302
14.381475 2.076301 2.310355
13.909150 2.230520 2.462382
14.190632 1.699072 2.303093
13.879220 1.736280 2.400332
13.697285 1.652137 2.447492
14.369967 1.308505 2.212999
14.005102 1.276946 2.327174
13.920183 1.140209 2.351261
13.519579 1.287199 2.482103
16.611858 0.780880 2.062426
16.606567 0.766483 2.172227
16.427553 0.451355 2.065687
16.338966 0.359506 2.108323
15.796142 2.071881 2.001486
16.409578 1.748806 2.103227
16.640728 1.286421 2.090219
16.630318 0.845466 2.119377
16.605238 0.762926 1.985944
16.173246 0.236231 1.927377
15.251284 0.192870 2.082525
15.002712 0.358367 2.105723
16.433367 1.720733 2.105892
16.527662 1.031864 1.917700
16.239941 0.993003 1.917700
15.121434 0.961128 1.917700
16.090662 0.819399 1.917700
16.184761 0.517288 1.917700
15.896469 0.855314 1.917700
14.992068 0.453530 1.917700
16.213955 1.098875 1.917700
15.602122 1.262406 1.917700
15.071668 1.399090 1.917700
15.309821 1.621443 1.917700
15.492911 1.659534 1.917700
16.532003 1.509738 1.917700
15.769053 1.651746 1.917700
17.994579 1.164049 -1.013036
18.001957 0.083706 0.136885
17.910629 0.554490 0.862993
17.976904 1.317286 0.989540
17.946621 2.076353 0.240264
17.972864 2.086428 0.192815
17.886967 2.058059 -0.305371
17.944000 1.152551 -1.013870
17.759474 1.076804 -1.015882
17.730679 0.190322 -0.471284
17.820217 1.185062 1.011368
18.007462 2.270936 -0.366923
18.007462 2.183319 -0.506076
18.007462 1.831195 -0.963123
18.007462 0.847683 -1.218690
18.007462 0.806917 -1.117436
18.007462 0.555740 -0.984621
18.007462 0.411252 -0.981648
18.007462 0.298070 -0.812390
18.007462 0.238482 0.678051
18.007462 1.034383 1.160239
18.007462 1.210366 1.200644
18.007462 1.820100 0.970930
18.007462 0.722034 -0.984163
18.007462 0.085268 -0.464817
18.007462 -0.033380 -0.130752
18.007462 0.179951 0.586155
18.007462 0.610479 1.052480
18.007462 2.161231 0.304060
18.181154 2.929542 -0.249437
18.246092 2.987879 -0.853519
18.202671 2.786665 -0.921798
18.112427 2.470301 -0.846546
18.234108 2.704195 -1.246678
18.144421 2.325012 -1.210816
18.257544 2.400469 -1.667360
18.216314 2.195277 -1.640452
18.021957 1.750247 -1.127874
18.219757 1.823007 -1.850012
18.284193 1.802038 -2.094937
18.279430 1.622901 -2.130584
18.260878 1.377000 -2.112868
18.052368 1.312181 -1.394065
18.206938 1.235784 -1.940672
18.279083 1.179022 -2.193090
18.176592 0.930585 -1.834536
18.279100 0.778208 -2.173346
18.282841 0.559904 -2.143924
18.202263 0.372433 -1.791466
18.097738 0.162560 -1.265360
18.081343 0.168393 -1.199258
18.283390 -0.360879 -1.667405
18.135517 -0.047259 -1.263188
18.129765 -0.430860 -0.712484
18.074612 -0.318493 -0.484004
18.253160 -0.962075 -0.472176
18.145601 -0.629426 -0.227863
18.104774 -0.498424 -0.127208
18.033504 -0.256729 0.032201
18.210648 -0.848590 0.281910
18.086304 -0.391259 0.380475
18.242327 -0.873426 0.651739
18.076845 -0.232037 0.702165
18.067951 -0.194543 0.707296
18.139297 -0.377077 0.883601
18.254223 -0.717146 1.088983
18.144407 -0.294887 1.037790
18.210905 -0.422959 1.245912
18.096128 -0.134717 0.971498
18.021641 0.124791 0.879564
18.253597 -0.284018 1.598220
18.165300 0.048168 1.470843
18.282822 -0.006610 1.916405
18.195673 0.321555 1.745405
18.251997 1.039003 2.101215
18.147190 1.116421 1.739392
18.162573 1.141145 1.792026
18.192919 1.281642 1.887765
18.206638 1.421220 1.916142
18.151920 1.494230 1.708703
18.213421 2.303959 1.549362
18.276936 2.497707 1.674029
18.105625 2.303808 1.035751
18.069050 2.279958 0.861670
18.175211 2.677797 0.922700
18.123617 2.581262 0.724545
18.286634 3.172455 0.771798
18.201529 2.971954 0.414650
18.048552 2.465354 0.253745
18.161709 2.853347 0.304390
18.116184 2.713389 0.170602
18.264254 3.229489 0.130739
18.168819 2.903955 0.016666
18.047901 1.708264 -1.252318
18.023672 0.461477 -1.152578
18.025108 0.272298 -1.033926
18.112274 -0.184445 -0.998363
18.058613 -0.195478 -0.634655
18.180222 -0.734660 0.328207
18.207676 -0.531157 1.082177
18.197002 -0.225060 1.387852
18.140989 1.688492 1.610524
18.011974 2.290515 0.419928
18.087273 2.524355 -0.538314
25.267599 3.157458 -0.814104
24.825634 3.140286 -0.855296
25.597605 3.108521 -0.929233
23.869678 3.085428 -0.976234
21.683819 3.020470 -1.099158
18.775227 2.967694 -1.187031
20.731607 2.997586 -1.139853
20.230099 3.050603 -1.045572
19.320610 3.074245 -0.998861
22.191525 3.129374 -0.880695
20.907133 3.092522 -0.961879
23.263067 3.095472 -0.955911
24.719431 3.056233 -1.035307
23.815752 3.005592 -1.125616
22.591940 2.979530 -1.168381
18.422398 2.888055 -1.304684
19.325003 2.938331 -1.233297
25.713655 3.021253 -1.097765
25.556326 2.992224 -1.148381
24.151518 2.967675 -1.187060
21.499054 2.930936 -1.244460
18.786690 2.815649 -1.399075
20.773439 2.927038 -1.249935
24.959743 2.939397 -1.231619
24.292889 2.907982 -1.276697
21.162096 2.811901 -1.403787
20.019548 2.774266 -1.448875
18.750067 2.770329 -1.453317
19.310322 2.818006 -1.396112
25.668970 2.894458 -1.295691
23.562025 2.829168 -1.382081
24.672356 2.844357 -1.362988
21.928148 2.782111 -1.440024
22.107952 2.759679 -1.465332
18.437525 2.699712 -1.531465
18.535694 2.719488 -1.510673
25.425062 2.806793 -1.410208
23.786694 2.768500 -1.455380
20.897860 2.694633 -1.536615
19.977882 2.603480 -1.626323
19.847401 2.655840 -1.575947
26.071369 2.728419 -1.500598
24.155880 2.707364 -1.523706
21.099291 2.588753 -1.639745
18.888535 2.510109 -1.708407
20.795418 2.568188 -1.658487
24.895096 2.645382 -1.586550
24.547340 2.621324 -1.610061
21.189569 2.489342 -1.725402
19.677176 2.425642 -1.775375
19.310085 2.470149 -1.741107
25.976608 2.586519 -1.641781
25.531603 2.538026 -1.685563
22.414173 2.414645 -1.783437
18.818417 2.288939 -1.870339
20.078075 2.395443 -1.797512
25.580288 2.508137 -1.710021
23.617992 2.434409 -1.768949
21.217276 2.268745 -1.883550
18.585407 2.208152 -1.919638
19.124683 2.278537 -1.877144
25.729433 2.431479 -1.771097
24.283369 2.339294 -1.837398
21.454357 2.251160 -1.894666
19.079617 2.122017 -1.967434
18.901495 2.171783 -1.940756
24.930353 2.298910 -1.863816
25.021954 2.250704 -1.894931
22.659605 2.152132 -1.952030
19.996441 2.047903 -2.005289
20.001431 2.061720 -1.998277
25.118607 2.175088 -1.938836
25.439169 2.191909 -1.929070
24.034533 2.122357 -1.967260
24.282875 2.125640 -1.965581
21.199911 2.007592 -2.023270
22.456900 2.013601 -2.020589
18.553356 1.891537 -2.071969
20.888628 1.975796 -2.037452
26.037924 2.143142 -1.956629
23.890600 2.021243 -2.017181
22.017942 1.894551 -2.070813
18.648939 1.745571 -2.122896
18.809628 1.832352 -2.094675
25.378231 1.957902 -2.045434
24.335131 1.925270 -2.059028
24.596189 1.894585 -2.070800
21.641598 1.761067 -2.117879
18.446741 1.639378 -2.152743
20.244358 1.717687 -2.131922
25.703470 1.868026 -2.080988
24.741867 1.785460 -2.109983
23.746126 1.785593 -2.109940
20.909975 1.668512 -2.144998
19.459721 1.548569 -2.173805
20.386301 1.633084 -2.154416
25.995832 1.777748 -2.112479
24.713408 1.697591 -2.137268
23.670744 1.615307 -2.159141
21.494574 1.534046 -2.176848
20.192957 1.470737 -2.189195
19.996435 1.545065 -2.174539
25.551258 1.605727 -2.161688
25.418310 1.574807 -2.168306
22.732170 1.477997 -2.188073
21.626726 1.472493 -2.188924
19.873686 1.336032 -2.208147
20.147203 1.361351 -2.205604
20.729609 1.448098 -2.192694
24.371756 1.496652 -2.184685
23.639135 1.433080 -2.195015
22.750772 1.337100 -2.208039
19.060282 1.203643 -2.218809
19.861156 1.315224 -2.210236
23.810883 1.372227 -2.204420
24.493870 1.351979 -2.206545
21.116570 1.228627 -2.217638
19.017221 1.123729 -2.221976
20.891983 1.150899 -2.221282
24.736492 1.261517 -2.215630
23.896542 1.203043 -2.218837
21.188354 1.033048 -2.221395
21.447567 1.125763 -2.221989
20.276581 0.995771 -2.220063
19.898666 1.069250 -2.221627
24.395609 1.165520 -2.220596
23.771677 1.129239 -2.222012
23.617100 1.071483 -2.221642
22.210962 0.998788 -2.220244
18.604788 0.814576 -2.204757
18.609612 0.906846 -2.214752
20.452169 0.964554 -2.218199
26.072536 1.109393 -2.221884
24.124763 0.945766 -2.217077
21.551491 0.810715 -2.204319
19.876997 0.776906 -2.200286
18.727388 0.772773 -2.199593
19.574997 0.812415 -2.204512
19.251007 0.794655 -2.202498
25.444273 0.900517 -2.214374
25.062759 0.962210 -2.218059
24.850174 0.881725 -2.212371
21.930788 0.779710 -2.200757
20.133249 0.637193 -2.175381
19.898104 0.714623 -2.189842
24.754236 0.791548 -2.202146
23.878300 0.688479 -2.185457
21.816311 0.623201 -2.172261
19.719416 0.518893 -2.147332
20.395327 0.603207 -2.167803
25.294487 0.665680 -2.181634
23.981058 0.592290 -2.165369
21.089512 0.475445 -2.135184
18.772524 0.380905 -2.105627
19.371393 0.445016 -2.126675
20.871424 0.435774 -2.124091
24.939959 0.554728 -2.156993
23.778389 0.470658 -2.133845
21.688423 0.358294 -2.097986
20.404367 0.313120 -2.082163
20.494701 0.326716 -2.087315
25.533350 0.518667 -2.147269
23.505224 0.414306 -2.116915
21.841215 0.302998 -2.078130
18.372744 0.140079 -2.008657
19.478424 0.248861 -2.056561
25.787132 0.391674 -2.109267
24.093102 0.319334 -2.084639
22.878780 0.205730 -2.038956
18.666512 0.043431 -1.959975
20.812847 0.187687 -2.030630
25.588005 0.298353 -2.076280
23.693308 0.166814 -2.020996
21.844275 0.094999 -1.987192
18.685946 -0.049944 -1.907168
20.669567 0.013662 -1.944263
25.416357 0.165890 -2.020570
26.041590 0.142041 -2.009563
23.674202 0.086504 -1.982709
25.707737 0.090141 -1.984628
21.565187 -0.062949 -1.899392
19.450546 -0.129393 -1.857561
19.812618 -0.060965 -1.900579
24.388330 0.019559 -1.947375
25.555023 -0.017752 -1.926416
21.176558 -0.165639 -1.833180
21.789677 -0.129856 -1.857249
18.337523 -0.231454 -1.786339
20.528090 -0.191866 -1.815538
24.421515 -0.081449 -1.888331
23.976944 -0.140414 -1.850148
21.461164 -0.271572 -1.756132
18.918428 -0.297724 -1.736114
20.158850 -0.266267 -1.760126
25.907179 -0.180560 -1.823143
26.087574 -0.200157 -1.809903
20.962547 -0.358478 -1.685084
19.381598 -0.384822 -1.662931
19.443521 -0.353887 -1.688940
25.023706 -0.264546 -1.761422
23.627037 -0.336145 -1.703843
22.040306 -0.399243 -1.649447
18.717911 -0.490008 -1.562573
20.205423 -0.469604 -1.583652
25.861721 -0.327306 -1.711267
23.552727 -0.429161 -1.621470
22.368549 -0.504776 -1.547210
22.117632 -0.514134 -1.537477
19.973454 -0.566132 -1.481843
20.285286 -0.520663 -1.530684
25.572065 -0.430993 -1.619757
24.418640 -0.462749 -1.590062
24.530281 -0.495819 -1.556528
22.116030 -0.575517 -1.470977
18.606110 -0.668844 -1.357812
19.865107 -0.593530 -1.450124
25.839563 -0.502693 -1.549378
24.110041 -0.590961 -1.453097
21.585018 -0.635739 -1.400540
19.304743 -0.717003 -1.293490
20.592844 -0.685535 -1.336269
25.337587 -0.609457 -1.431684
23.972031 -0.630451 -1.407364
21.844309 -0.715228 -1.296052
19.256596 -0.771329 -1.214885
19.442112 -0.791031 -1.182944
19.098515 -0.766154 -1.222553
25.038515 -0.660967 -1.367979
24.155478 -0.732983 -1.270428
21.465921 -0.809851 -1.152432
19.721153 -0.839597 -1.102668
18.822580 -0.830214 -1.119419
25.410248 -0.748291 -1.248334
24.748688 -0.778114 -1.203885
21.108032 -0.861069 -1.063311
19.755409 -0.900137 -0.988834
19.805513 -0.859124 -1.066876
24.090649 -0.825465 -1.127117
24.161114 -0.872783 -1.041840
22.559752 -0.897310 -0.994743
18.896503 -0.949364 -0.882932
20.559372 -0.897515 -0.994314
25.947035 -0.847807 -1.087619
24.380730 -0.902500 -0.983895
21.228987 -0.972160 -0.827935
18.376301 -1.006310 -0.736813
19.433777 -0.968254 -0.837358
25.845337 -0.925954 -0.934865
25.023722 -0.945858 -0.891390
23.845182 -0.945474 -0.892316
22.281918 -1.003770 -0.744000
21.009649 -1.005313 -0.739634
19.379631 -1.036678 -0.644167
20.251778 -1.007166 -0.734391
25.522570 -0.981585 -0.805197
24.550314 -0.994682 -0.769718
22.773325 -1.031420 -0.662017
19.468243 -1.063797 -0.547559
20.725092 -1.032412 -0.658648
24.815540 -1.017075 -0.706353
24.216311 -1.045889 -0.612894
22.634922 -1.064321 -0.545356
19.436459 -1.085604 -0.455719
18.957178 -1.081960 -0.471095
19.528637 -1.075293 -0.499163
25.988564 -1.057962 -0.571905
24.758615 -1.062670 -0.552308
21.974674 -1.088621 -0.439134
18.986916 -1.117244 -0.257116
20.353275 -1.108109 -0.328827
20.324797 -1.092897 -0.415632
24.619926 -1.074184 -0.503831
23.759249 -1.094578 -0.406389
22.040998 -1.107698 -0.332054
18.675262 -1.123367 -0.199548
19.983252 -1.118789 -0.244991
25.861780 -1.093456 -0.412555
25.194742 -1.107821 -0.331088
21.029636 -1.129810 -0.111993
18.995138 -1.131157 -0.066313
20.192106 -1.124257 -0.187447
24.989433 -1.114552 -0.278254
24.844395 -1.122982 -0.204775
20.912699 -1.131088 -0.069748
18.901627 -1.130547 0.082009
19.889009 -1.132447 -0.002520
24.377544 -1.129365 -0.118044
24.245855 -1.131215 -0.063443
20.960833 -1.130799 0.074370
18.916574 -1.124359 0.184748
20.345564 -1.129655 0.108983
24.841742 -1.132284 -0.010599
24.909790 -1.132588 0.020231
25.553459 -1.132679 0.017471
22.992115 -1.128147 0.140962
18.888754 -1.110069 0.311720
18.638533 -1.118982 0.246921
20.202734 -1.119337 0.242814
25.200897 -1.130126 0.094752
24.275438 -1.126363 0.161587
22.308062 -1.115387 0.273852
20.941973 -1.107094 0.332902
20.704693 -1.100939 0.374161
20.423819 -1.103288 0.360001
24.824659 -1.120895 0.224806
23.871576 -1.105679 0.342975
21.653694 -1.102184 0.367781
20.062429 -1.072203 0.512988
19.890205 -1.080844 0.477105
24.343981 -1.102449 0.365976
24.762630 -1.101147 0.373095
21.840628 -1.065610 0.539244
19.522230 -1.047480 0.609030
20.301704 -1.065230 0.540757
24.879665 -1.086589 0.447673
25.380640 -1.076602 0.495469
20.942986 -1.035032 0.649376
18.308222 -0.993012 0.773624
20.492565 -1.032118 0.658822
25.823339 -1.067000 0.533708
23.645906 -1.035097 0.649167
22.106691 -1.015098 0.713592
18.470287 -0.935605 0.914288
19.789265 -0.998252 0.759382
25.620068 -1.015880 0.711448
26.085039 -1.033156 0.655457
25.454109 -1.012838 0.719734
21.344135 -0.959412 0.858872
18.728897 -0.914762 0.958690
19.574337 -0.941788 0.899898
25.863359 -0.989906 0.782069
24.458860 -0.945558 0.891120
22.315155 -0.916375 0.955424
19.867323 -0.859723 1.066100
20.100647 -0.878685 1.031686
26.053797 -0.964668 0.846638
24.697290 -0.908538 0.971282
22.586147 -0.870840 1.046329
18.546398 -0.781555 1.197749
19.868237 -0.844172 1.093753
24.547861 -0.888698 1.011427
24.317396 -0.865040 1.056644
21.177017 -0.813044 1.148132
18.864660 -0.724368 1.282704
19.359735 -0.764057 1.225320
26.080639 -0.864603 1.057420
25.832453 -0.816350 1.142923
21.913437 -0.714866 1.296049
19.817488 -0.677632 1.347134
20.793400 -0.726583 1.279594
23.999090 -0.757959 1.234929
23.884882 -0.713791 1.297559
21.457565 -0.638399 1.396452
21.673817 -0.664295 1.363899
19.776798 -0.602751 1.440050
19.705198 -0.619149 1.420650
24.806190 -0.708439 1.305076
24.230902 -0.696156 1.322327
24.129156 -0.636846 1.398405
22.030336 -0.578988 1.466859
19.479815 -0.504751 1.547305
19.139025 -0.535162 1.516301
24.349100 -0.631899 1.404623
25.050049 -0.600542 1.442543
23.094131 -0.528275 1.523455
18.874640 -0.383832 1.663061
20.260984 -0.459438 1.593249
25.273991 -0.569218 1.477881
25.114689 -0.525112 1.526662
23.079317 -0.445024 1.607294
18.315149 -0.350428 1.692323
20.252325 -0.391235 1.656314
25.323509 -0.496119 1.556057
23.908800 -0.384427 1.662519
21.909552 -0.359070 1.685251
20.181057 -0.268160 1.759354
18.946123 -0.277388 1.752092
25.062910 -0.396464 1.651549
25.568218 -0.356337 1.687487
22.049477 -0.234272 1.784196
18.652956 -0.148138 1.845129
18.651155 -0.176073 1.826855
20.662796 -0.227023 1.789510
25.948420 -0.334122 1.705666
24.002460 -0.231497 1.786230
21.652985 -0.166919 1.832843
18.428707 -0.047857 1.908582
20.709312 -0.117259 1.865330
25.884544 -0.252522 1.770818
25.280380 -0.166860 1.832882
21.760916 -0.040506 1.912850
19.241451 0.090762 1.984540
19.120695 0.016247 1.945803
26.107306 -0.143350 1.848262
23.627411 -0.051077 1.906712
22.217079 0.048177 1.962758
18.296173 0.156122 2.016301
20.672853 0.038356 1.957734
24.645859 -0.008936 1.931181
24.915104 0.033096 1.955043
21.254238 0.131341 2.005247
18.858765 0.309843 2.080426
20.867659 0.231421 2.049889
25.887245 0.094130 1.986263
23.955399 0.131733 2.005422
22.389446 0.254843 2.059325
19.467949 0.352750 2.096669
19.304373 0.340529 2.092198
25.483555 0.234958 2.051466
23.990637 0.311257 2.080968
22.838892 0.355422 2.097534
19.555145 0.517778 2.146846
19.186628 0.456380 2.130216
25.251268 0.287596 2.071891
25.252329 0.378127 2.104884
22.913517 0.481662 2.137245
19.284904 0.583808 2.163963
20.722301 0.484768 2.138071
19.619808 0.562885 2.158837
25.907995 0.361452 2.099486
24.925888 0.478362 2.136368
22.369688 0.603624 2.168116
19.388809 0.747832 2.195259
20.162489 0.638720 2.175471
25.745205 0.500826 2.142340
24.871820 0.624905 2.172576
22.527924 0.696179 2.187276
19.706810 0.814865 2.205291
19.698076 0.770523 2.198765
25.836466 0.627237 2.173064
23.601278 0.754056 2.196220
21.094894 0.867739 2.210600
18.860010 0.934854 2.216895
18.848827 0.903202 2.214161
24.841316 0.771433 2.198906
24.342012 0.812478 2.205051
22.079744 0.965289 2.218322
18.856792 1.101248 2.221684
20.328371 0.999981 2.219948
25.146248 0.880819 2.211914
25.200319 0.943408 2.217296
20.902504 1.087867 2.221770
18.780161 1.222839 2.217718
20.807537 1.145594 2.221400
25.531546 1.012335 2.220527
24.092237 1.101726 2.221681
21.429586 1.225465 2.217561
19.198801 1.316632 2.210214
20.851810 1.221201 2.217816
25.968403 1.077545 2.221836
23.601553 1.226713 2.217486
23.033607 1.286483 2.213632
19.856730 1.433344 2.195102
20.828966 1.298056 2.212320
23.753639 1.271725 2.214798
24.220854 1.287439 2.213524
22.703173 1.406917 2.199534
19.869543 1.541447 2.175537
19.910761 1.446693 2.192864
25.701937 1.363939 2.204850
24.400148 1.408508 2.199267
21.092148 1.550590 2.173498
18.666924 1.659101 2.147708
19.093393 1.609864 2.160281
24.958742 1.480211 2.187243
25.161402 1.521829 2.179912
21.545593 1.693275 2.138152
18.338215 1.790869 2.108183
20.251106 1.681958 2.141317
25.483807 1.565020 2.170280
24.312021 1.687625 2.139732
21.072130 1.809092 2.102025
20.178377 1.870771 2.080349
20.086140 1.830260 2.094872
23.981775 1.743769 2.124034
23.724953 1.783909 2.110536
22.965353 1.862094 2.083806
19.527107 1.988219 2.032213
20.774181 1.962821 2.043674
26.088633 1.753820 2.120704
23.986271 1.874029 2.079051
21.929253 1.992193 2.030379
18.399744 2.083327 1.987726
20.055353 2.051860 2.002841
26.092386 1.880675 2.076403
23.556879 2.031479 2.012248
22.071785 2.117016 1.969945
18.811361 2.231989 1.905549
20.803232 2.164921 1.944661
25.928734 2.010030 2.022147
26.011120 1.979586 2.036197
25.300970 2.089919 1.984247
22.542019 2.191001 1.930056
19.513668 2.306936 1.858767
20.008331 2.268655 1.883626
25.004570 2.120297 1.968213
23.552778 2.277395 1.878399
22.782139 2.291822 1.868933
20.202648 2.382647 1.807530
19.643993 2.356983 1.825104
19.144791 2.361758 1.821892
25.417395 2.275247 1.879684
24.692122 2.302109 1.862014
21.976931 2.425825 1.775019
19.130709 2.516046 1.703369
19.344049 2.445363 1.760308
20.002329 2.457960 1.750823
24.544151 2.349104 1.830403
25.780010 2.389618 1.802280
22.272066 2.479422 1.734130
20.268366 2.569968 1.657500
20.537357 2.524706 1.696094
25.891050 2.410715 1.786396
24.833244 2.486283 1.728367
21.795422 2.611236 1.618910
19.497465 2.666589 1.565439
20.719946 2.582242 1.646022
25.142202 2.518184 1.701573
24.356421 2.613204 1.617070
21.280310 2.657398 1.575000
19.747154 2.753292 1.472786
19.923342 2.730192 1.499277
24.893410 2.619331 1.611340
24.021334 2.698339 1.532412
21.484371 2.763760 1.460667
22.357622 2.755735 1.469957
18.354883 2.814476 1.401314
19.767105 2.779137 1.442864
24.310286 2.716799 1.513209
23.968922 2.771168 1.452089
22.040487 2.830607 1.380494
19.290014 2.900299 1.287777
19.584373 2.851750 1.353206
25.622051 2.787626 1.433037
25.098644 2.831516 1.379322
21.397476 2.933817 1.239401
19.040497 2.963653 1.193830
20.512133 2.902508 1.284588
24.533525 2.864984 1.336124
25.258310 2.889349 1.303580
22.478750 2.953641 1.210062
19.699120 3.026237 1.089281
20.591730 3.006902 1.123713
23.787035 2.948637 1.218013
24.184696 2.981783 1.164437
21.580240 3.041109 1.062022
21.856325 3.017700 1.104929
18.333559 3.082595 0.982310
19.129860 3.064349 1.019424
25.978159 2.994400 1.143981
24.753410 3.018593 1.103292
20.981556 3.090942 0.964860
20.286045 3.124641 0.892726
19.966471 3.114473 0.915671
25.952244 3.017722 1.104889
24.065868 3.104541 0.936432
20.894777 3.159916 0.807625
18.294456 3.195390 0.709243
18.672724 3.177927 0.758659
19.297857 3.149229 0.833407
25.709236 3.076272 0.995528
24.267830 3.132142 0.874631
23.124632 3.164921 0.795462
18.440439 3.214998 0.647620
19.205557 3.191561 0.720076
25.373085 3.140114 0.855397
23.524960 3.177725 0.759229
21.212776 3.225693 0.611308
18.984449 3.253987 0.501870
20.640421 3.212850 0.654910
25.118399 3.185691 0.736688
24.882168 3.210451 0.663057
22.655188 3.238890 0.565429
18.515167 3.281740 0.363377
19.966431 3.250455 0.516737
18.818739 3.259360 0.479248
25.118069 3.232544 0.588050
25.395931 3.242053 0.552112
21.641584 3.268808 0.434459
19.483986 3.288893 0.317472
18.951704 3.281575 0.364285
23.799852 3.262799 0.464770
24.153635 3.270010 0.427852
22.463835 3.288061 0.324001
18.625694 3.306432 0.148880
20.458002 3.291991 0.293155
24.999832 3.285865 0.340700
24.949020 3.291137 0.299851
21.583141 3.302297 0.205073
18.498379 3.310021 0.089701
19.361109 3.310519 0.065117
20.535130 3.308844 0.116115
25.730257 3.294044 0.277034
23.999620 3.302409 0.203550
22.349625 3.310407 0.070645
18.792074 3.309692 -0.087793
20.164425 3.312102 -0.013225
25.072475 3.307966 0.128040
23.991674 3.310346 0.073654
22.064594 3.311655 -0.028412
20.005211 3.305929 -0.158937
19.987909 3.310032 -0.077527
25.237864 3.310590 0.061570
24.415346 3.311540 -0.031894
21.275948 3.305053 -0.169058
18.297754 3.285105 -0.342345
20.604734 3.303728 -0.184381
24.907774 3.308672 -0.118687
23.822227 3.302087 -0.203357
21.773914 3.297636 -0.253119
19.833269 3.273779 -0.407442
18.969904 3.268086 -0.436608
19.489845 3.286027 -0.335780
25.749508 3.299969 -0.227839
24.321415 3.297957 -0.250828
22.675276 3.279097 -0.380200
19.676102 3.257143 -0.490677
20.622557 3.267202 -0.441140
25.480743 3.282010 -0.364383
23.819654 3.267882 -0.437655
20.985682 3.251502 -0.513142
19.428509 3.227319 -0.607404
20.290064 3.233989 -0.582884
24.268921 3.265205 -0.451370
24.319283 3.254133 -0.502661
21.495340 3.216149 -0.643606
19.993671 3.194504 -0.713403
18.861942 3.195343 -0.711042
25.506716 3.237964 -0.567052
23.554115 3.213800 -0.651218
21.934561 3.175244 -0.765757
21.394939 3.190231 -0.725019
18.363260 3.119253 -0.904255
19.495071 3.167372 -0.787154
20.864565 3.191355 -0.721962
25.240385 3.200250 -0.695135
25.733431 3.206688 -0.674269
23.855125 3.163354 -0.798077
24.506809 3.174184 -0.768638
21.366051 3.140937 -0.853780
18.295652 3.077144 -0.992995
19.955025 3.120332 -0.901743
22.179306 -1.026078 0.678396
22.258659 -0.990997 0.779104
21.455639 3.155305 -0.819955
21.530449 3.203440 -0.684797
21.565929 3.006530 -1.123947
23.119406 2.986505 -1.157391
22.307089 2.887673 -1.305220
22.354984 2.826758 -1.385111
22.603228 2.745849 -1.480934
22.844627 2.669005 -1.562599
21.855352 2.557320 -1.668391
23.400946 2.605511 -1.624472
22.213972 2.466059 -1.744454
21.729181 2.383402 -1.806339
21.993145 2.275451 -1.879162
23.256851 2.193101 -1.928377
23.015852 2.060207 -1.999051
21.548819 1.945841 -2.050814
22.399427 1.830685 -2.095314
22.569530 1.756620 -2.119319
21.889816 1.624591 -2.156673
22.782639 1.543519 -2.174863
22.448910 1.418306 -2.197299
22.762167 1.294208 -2.212347
21.262592 1.137963 -2.221888
22.588371 1.078359 -2.221685
22.022779 0.920464 -2.215565
23.174709 0.868892 -2.210916
22.367830 0.690609 -2.185814
22.868872 0.635651 -2.175038
22.205450 0.485541 -2.138007
21.657869 0.329725 -2.088332
22.756775 0.267971 -2.064175
22.320238 0.143597 -2.010281
21.201923 0.004342 -1.939344
22.916039 0.075525 -1.976914
23.386818 -0.041354 -1.912304
22.289330 -0.170847 -1.829677
21.682261 -0.288804 -1.743157
21.964947 -0.349429 -1.692685
22.580194 -0.444846 -1.606803
22.444756 -0.549599 -1.500584
22.937212 -0.539520 -1.511069
22.967703 -0.581625 -1.463906
21.187206 -0.698208 -1.319913
22.284447 -0.738344 -1.262691
21.598423 -0.818917 -1.137733
23.474606 -0.855252 -1.073974
23.333221 -0.909444 -0.969378
23.096815 -0.962739 -0.850664
22.834993 -0.996238 -0.765313
22.414394 -1.048937 -0.602547
23.085070 -1.056630 -0.576429
22.793465 -1.072879 -0.509326
22.828007 -1.100670 -0.372900
23.186331 -1.113852 -0.283745
23.392813 -1.125930 -0.164723
21.757471 -1.132754 0.012692
23.293602 -1.131675 0.047877
23.456692 -1.120469 0.229730
22.735758 -1.109321 0.317045
22.584314 -1.083814 0.461894
21.452328 -1.054844 0.582118
22.201035 -0.940363 0.903213
23.088520 -0.914901 0.958407
22.623991 -0.846786 1.089105
23.413328 -0.763482 1.226225
22.221947 -0.699399 1.317772
22.148968 -0.620575 1.418858
22.978336 -0.585155 1.459901
22.504351 -0.476228 1.576226
22.411980 -0.372038 1.673809
21.619755 -0.296717 1.736275
23.128145 -0.176337 1.826665
22.651237 -0.141206 1.849664
23.175079 -0.025548 1.921536
22.386658 0.121721 2.000376
23.464296 0.180524 2.027186
23.441767 0.299342 2.076397
21.255592 0.446298 2.126953
22.463657 0.558734 2.157733
22.244057 0.673578 2.182776
22.626780 0.769968 2.198679
21.614456 0.796312 2.202751
23.490557 0.837210 2.207535
23.332047 0.970292 2.218556
22.037235 1.130232 2.221498
21.735285 1.258646 2.215579
21.731182 1.374557 2.203646
23.201424 1.460759 2.190505
23.300631 1.448583 2.192547
23.364969 1.594352 2.163740
22.957844 1.733086 2.127021
22.841177 1.839234 2.091839
22.534033 1.962018 2.043995
23.470999 2.010638 2.021866
22.979912 2.100286 1.978775
22.959106 2.218830 1.913417
22.731039 2.309859 1.856801
22.078285 2.450701 1.756289
23.070456 2.525528 1.695404
22.335144 2.643474 1.588764
22.642797 2.717017 1.512982
21.298363 2.725038 1.504639
22.754808 2.784645 1.436487
23.067963 2.822004 1.391598
21.707199 2.949160 1.217258
23.492813 2.965037 1.191587
22.413172 3.053015 1.040200
22.614077 3.116055 0.912363
22.810234 3.148651 0.834801
21.864693 3.203186 0.687183
21.477209 3.233731 0.584019
23.480959 3.256638 0.490710
23.362078 3.275850 0.395754
23.462173 3.296946 0.254255
21.222822 3.309541 0.106649
22.498873 3.311591 0.012054
22.891731 3.309093 -0.105917
22.220827 3.300654 -0.219920
22.987787 3.299152 -0.237282
23.281370 3.285941 -0.336389
23.115616 3.275712 -0.397543
21.848721 3.230803 -0.595571
26.213442 2.807440 -0.725993
26.145319 2.952351 -0.970817
26.136654 2.951809 -1.033917
26.259447 2.479443 -0.989488
26.266489 2.439511 -1.003001
26.313606 2.182477 -1.054808
26.133738 2.783569 -1.308132
26.340124 2.100490 -1.007281
26.357899 1.976102 -1.038922
26.337139 1.815192 -1.241352
26.256290 1.897105 -1.515408
26.151632 1.890492 -1.918339
26.144606 2.088011 -1.850894
26.323904 1.481603 -1.430903
26.162037 1.485264 -2.003718
26.238581 1.331340 -1.761502
26.242512 1.109267 -1.764402
26.291504 1.142836 -1.594684
26.323889 0.941011 -1.476158
26.341578 0.864689 -1.404679
26.379128 0.809379 -1.261656
26.114126 0.513859 -2.131345
26.141548 0.675458 -2.072540
26.233915 0.455224 -1.678587
26.176718 -0.024640 -1.650736
26.214096 -0.105163 -1.428551
26.133524 -0.610650 -1.300608
26.316004 -0.150372 -0.862738
26.279715 -0.359068 -0.760584
26.382900 -0.113808 -0.435608
26.309109 -0.356587 -0.513313
26.229191 -0.632978 -0.557551
26.346806 -0.284603 -0.289912
26.268736 -0.512479 -0.485195
26.266096 -0.568269 -0.289032
26.167374 -0.913682 -0.289575
26.210390 -0.785741 0.026642
26.130951 -1.009143 0.467894
26.238544 -0.614717 0.507337
26.212681 -0.679331 0.599151
26.266239 -0.410404 0.761689
26.282515 -0.261196 0.905748
26.301933 -0.163500 0.928107
26.346794 0.011739 0.899858
26.291330 -0.001959 1.163887
26.115757 -0.298461 1.709432
26.361458 0.200017 1.020670
26.253868 0.316956 1.542315
26.275631 0.457633 1.524236
26.234411 0.464699 1.680109
26.279573 0.675966 1.583037
26.149115 0.658927 2.041958
26.271181 0.883475 1.652642
26.254059 1.019116 1.722894
26.210255 1.249018 1.869364
26.210030 1.321967 1.862252
26.278622 1.406804 1.609105
26.343800 1.405335 1.378815
26.311415 1.557946 1.452727
26.308920 1.664666 1.422998
26.239006 1.846138 1.607487
26.247498 1.563189 1.681942
26.378853 1.733645 1.121447
26.299566 1.991592 1.281970
26.287142 2.222538 1.144607
26.230888 2.390284 1.250646
26.367323 2.157326 0.798465
26.210524 2.667374 1.013131
26.126963 2.915081 1.161376
26.113476 3.062473 0.997067
26.236664 2.793312 0.532074
26.187716 2.881757 0.778602
26.155539 3.086184 0.528649
26.127274 3.194426 0.495522
26.206171 2.938772 0.392189
26.164848 3.103183 0.277987
26.273771 2.725200 0.265147
26.342510 2.505381 0.093636
26.120674 3.177117 -0.645803
26.389462 1.880254 -0.637515
26.389462 0.837773 -1.209842
26.389462 -0.056204 -0.276457
26.389462 0.099025 0.496172
26.389462 0.026064 0.634287
26.389462 0.585725 0.973872
26.389462 0.362867 0.909679
26.389462 0.522000 1.111062
26.389462 1.040548 1.213657
26.389462 1.914599 0.795234
26.389462 2.322829 0.167865
