-13.569 6.322 41.047
-12.324 6.322 41.215
-11.320 6.322 37.989
-15.179 6.322 41.273
6.632 6.322 40.403
13.069 6.322 41.377
-3.957 6.322 40.131
-14.916 6.322 39.820
-10.522 6.322 40.852
-6.003 6.322 40.908
-5.715 6.322 39.416
-6.974 6.322 40.954
9.569 6.322 41.349
-14.089 6.322 40.434
-6.353 6.322 39.978
0.558 6.322 39.625
5.688 6.322 40.523
3.599 6.322 40.133
-13.461 6.322 39.405
-2.394 6.322 39.399
-13.022 6.322 38.310
-15.476 6.322 41.185
-11.603 6.322 38.398
-7.620 6.322 41.418
-14.355 6.322 38.475
-13.825 6.322 40.394
-13.295 6.322 40.085
-2.244 6.322 41.795
-12.218 6.322 41.408
-10.296 6.322 41.541
-6.739 6.322 41.389
-8.257 6.322 40.859
-7.885 6.322 40.994
9.393 6.322 41.784
9.242 6.322 41.680
2.815 6.322 40.467
1.808 6.322 41.681
10.558 6.322 41.024
-3.009 6.322 41.561
-10.044 6.322 38.527
-8.684 6.322 40.408
5.392 6.322 40.764
-6.212 6.322 38.701
-4.991 6.322 40.478
-7.756 6.322 40.451
-1.048 6.322 39.746
2.864 6.322 40.644
-0.351 6.322 40.638
-12.983 6.322 39.423
-10.825 6.322 39.768
-2.220 6.322 40.003
-12.436 6.322 38.619
1.280 6.322 40.041
-9.097 6.322 41.375
-7.506 6.322 39.586
-11.328 6.322 41.304
12.631 6.322 41.557
10.347 6.322 41.753
-1.279 6.322 40.342
-3.650 6.322 41.770
10.935 6.322 41.222
0.751 6.322 40.025
-10.190 6.322 41.587
-14.422 6.322 41.033
-15.495 6.322 41.143
11.845 6.322 41.178
11.491 6.322 41.794
-7.724 6.322 40.803
-12.536 6.322 41.221
-0.641 6.322 39.853
9.214 6.322 41.170
0.729 6.322 41.378
6.998 6.322 40.609
-14.291 6.322 40.972
2.454 6.322 40.817
-10.132 6.322 40.773
-7.309 6.322 41.048
2.594 6.322 41.292
6.916 6.322 41.689
-11.946 6.322 40.984
-12.535 6.322 40.812
-12.135 6.322 38.810
-7.205 6.322 40.275
-15.697 6.322 37.345
-3.775 6.322 40.271
-11.117 6.322 38.959
4.675 6.322 40.957
-11.487 6.322 39.327
-7.347 6.322 38.540
-7.013 6.322 39.541
-13.019 6.322 38.252
-14.499 6.322 39.170
-9.928 6.322 38.364
-6.673 6.322 40.572
-0.547 6.322 40.612
8.120 6.322 41.270
-9.852 6.322 40.624
-15.008 6.322 37.839
1.035 6.322 39.907
-7.649 6.322 41.572
-0.367 6.322 40.315
-4.941 6.322 40.033
11.581 6.322 41.515
-14.244 6.322 37.466
-7.910 6.322 41.878
-13.160 6.322 38.500
6.084 6.322 41.253
12.189 6.322 41.874
-1.890 6.322 40.136
-15.172 6.322 38.359
-6.818 6.322 41.477
3.019 6.322 40.465
4.563 6.322 40.591
-6.202 6.322 38.895
-5.803 6.322 40.415
-8.981 6.322 39.871
-8.115 6.322 39.420
-2.659 6.322 39.544
4.046 6.322 41.191
-6.662 6.322 39.374
-6.812 6.322 40.501
-9.079 6.322 39.877
-2.567 6.322 41.810
-10.207 6.322 39.457
-9.425 6.322 40.086
14.355 6.322 41.588
-13.908 6.322 38.862
-1.372 6.322 40.445
-7.737 6.322 41.535
-7.889 6.322 41.217
5.844 6.322 41.073
-5.422 6.322 38.895
-3.515 6.322 40.528
-5.607 6.322 39.773
9.579 6.322 41.325
-15.040 6.322 39.772
-1.751 6.322 39.339
-4.588 6.322 40.574
-14.041 6.322 37.574
-12.186 6.322 38.758
-7.686 6.322 40.211
-4.263 6.322 40.225
-11.398 6.322 39.340
-3.175 6.322 39.349
-7.136 6.322 41.531
-5.453 6.322 40.962
-6.640 6.322 38.609
-9.615 6.322 41.067
-3.653 6.322 41.452
-16.044 6.322 39.545
-6.136 6.322 40.230
3.476 6.322 40.471
-11.394 6.322 41.382
-9.455 6.322 39.085
-13.082 6.322 40.034
-4.044 6.322 41.094
-11.824 6.322 40.329
6.590 6.322 41.880
0.044 6.322 41.196
1.176 6.322 39.840
-7.914 6.322 38.693
-2.755 6.322 39.895
-2.068 6.322 39.840
-15.569 6.322 37.768
9.685 6.322 41.758
-2.295 6.322 40.281
-14.553 6.322 39.742
3.216 6.322 41.115
-9.991 6.322 40.302
-5.601 6.322 40.746
3.044 6.322 40.197
-9.757 6.322 40.974
-7.823 6.322 41.513
-9.950 6.322 40.783
9.062 6.322 41.850
-9.024 6.322 41.807
-8.044 6.322 40.324
-7.962 6.322 40.844
2.330 6.322 41.729
10.765 6.322 41.525
-0.092 6.322 40.007
-9.675 6.322 38.820
-1.018 6.322 41.682
4.511 6.322 41.076
1.671 6.322 40.227
-3.352 6.322 39.137
2.937 6.322 41.109
1.893 6.322 41.173
-13.384 6.322 40.364
14.119 6.322 41.515
-3.622 6.322 40.945
3.305 6.322 39.986
-2.233 6.322 39.899
9.006 6.322 41.737
-5.680 6.322 41.857
-3.716 6.322 39.798
-3.591 6.322 41.791
-6.984 6.322 41.647
4.271 6.322 41.814
-0.889 6.322 39.813
2.264 6.322 40.926
-14.182 6.322 37.956
-13.568 6.322 38.240
-6.953 6.322 40.534
9.270 6.322 41.464
13.804 6.322 41.813
-14.552 6.322 39.340
-15.378 6.322 38.862
-10.312 6.322 39.665
-10.510 6.322 38.760
-1.207 6.322 40.490
-12.439 6.322 41.471
-4.065 6.322 39.208
-15.060 6.322 39.531
-4.536 6.322 40.178
0.848 6.322 39.919
-10.124 6.322 38.519
4.671 6.322 41.190
-12.612 6.322 40.998
13.800 6.322 41.707
6.860 6.322 40.437
-12.533 6.322 39.313
-11.591 6.322 38.152
-3.624 6.322 41.325
-12.156 6.322 39.038
-13.632 6.322 40.719
3.361 6.322 41.419
-5.812 6.322 41.815
1.403 6.322 41.543
10.319 6.322 41.787
-4.042 6.322 39.000
-9.178 6.322 40.747
12.165 6.322 41.590
-10.175 6.322 39.157
-15.517 6.322 41.869
-14.504 6.322 38.203
-13.318 6.322 37.647
-13.991 6.322 38.252
9.451 6.322 41.309
-12.326 6.322 41.699
-14.454 6.322 41.449
-0.440 6.322 39.762
-5.958 6.322 41.098
-8.241 6.322 39.969
-12.809 6.322 37.794
6.004 6.322 40.488
-0.824 6.322 39.615
-6.917 6.322 38.655
-3.184 6.322 40.417
4.359 6.322 40.587
1.743 6.322 40.199
11.908 6.322 41.560
-13.051 6.322 40.716
-12.483 6.322 41.545
-2.357 6.322 41.512
-15.183 6.322 41.360
-13.874 6.322 39.954
2.305 6.322 40.604
-11.962 6.322 41.884
-16.192 6.322 38.027
4.598 6.322 41.135
0.423 6.322 39.947
7.746 6.322 41.120
-12.813 6.322 38.999
8.375 6.322 41.538
-5.339 6.322 39.097
-15.504 6.322 37.633
-15.829 6.322 40.615
-13.358 6.322 41.220
12.231 6.322 41.446
-15.506 6.322 37.419
-13.524 6.322 40.928
-4.636 6.322 41.816
-10.876 6.322 38.653
-2.438 6.322 40.396
1.198 6.322 41.008
-16.011 6.322 39.353
-11.505 6.322 40.394
-7.691 6.322 40.595
0.600 6.322 40.466
-13.402 6.322 41.603
2.224 6.322 41.260
-3.913 6.322 39.116
-2.963 6.322 41.300
-10.205 6.324 37.186
12.735 6.331 37.186
16.760 6.325 37.186
-8.911 6.343 37.186
-16.143 6.344 37.186
0.157 6.345 37.186
17.209 6.169 41.356
17.209 6.319 40.202
17.209 6.294 37.930
17.209 6.309 39.873
17.209 6.254 41.551
17.209 6.158 41.450
17.209 6.050 39.914
17.209 6.124 36.468
17.209 6.024 39.874
17.209 6.165 37.886
17.209 6.073 39.633
17.209 5.990 40.286
17.209 5.979 38.077
17.209 5.959 39.571
17.209 6.437 37.058
17.209 6.593 37.392
17.209 6.575 39.199
17.209 6.616 40.024
17.209 6.485 38.155
17.209 6.480 39.349
17.209 6.549 39.871
17.209 6.496 41.272
17.209 6.508 41.685
17.209 6.394 41.787
17.209 6.594 41.055
17.209 6.692 36.539
17.209 6.665 36.287
17.209 6.640 38.461
-9.804 6.322 34.091
6.292 6.322 33.423
7.031 6.322 33.604
-12.678 6.322 32.168
-2.770 6.322 32.664
-9.766 6.322 32.932
-12.751 6.322 33.097
7.806 6.322 34.080
-15.053 6.322 33.841
-4.954 6.322 31.829
-0.977 6.322 34.058
-3.526 6.322 33.279
-7.273 6.322 34.893
-12.444 6.322 33.740
-8.952 6.322 31.480
3.609 6.322 33.789
4.958 6.322 33.418
-13.875 6.322 34.136
-1.333 6.322 32.795
-15.640 6.322 34.214
-13.318 6.322 31.167
-4.719 6.322 31.951
5.397 6.322 33.309
-6.504 6.322 33.924
3.934 6.322 34.001
1.039 6.322 34.274
-12.288 6.322 31.340
-12.075 6.322 33.521
-7.574 6.322 33.080
-16.020 6.322 30.891
12.743 6.322 34.296
-14.664 6.322 31.036
-9.027 6.322 34.290
-11.663 6.322 34.687
3.756 6.322 34.499
-14.817 6.322 32.179
-9.556 6.322 32.539
-11.230 6.322 32.713
-12.962 6.322 31.043
-9.482 6.322 32.790
-10.681 6.322 31.522
-4.947 6.322 33.282
-10.024 6.322 32.500
-8.157 6.322 32.565
-3.434 6.322 32.295
-8.438 6.322 34.408
-15.023 6.322 31.939
-9.783 6.322 33.925
-14.138 6.322 31.062
-15.600 6.322 34.430
2.588 6.322 32.862
-15.265 6.322 34.747
-15.001 6.322 33.532
4.784 6.322 34.683
-0.070 6.322 32.792
-9.416 6.322 34.122
-9.739 6.322 31.605
-10.152 6.322 34.888
-4.727 6.322 32.605
-1.552 6.322 33.989
-1.965 6.322 32.795
-10.573 6.322 31.658
-4.770 6.322 34.116
-0.568 6.322 33.320
9.260 6.322 34.019
-9.209 6.322 33.714
11.093 6.322 34.481
-7.133 6.322 34.212
-13.432 6.322 32.153
-4.545 6.322 34.343
-16.025 6.322 31.693
-4.947 6.322 33.296
-12.703 6.322 33.635
-15.999 6.322 31.052
4.308 6.322 33.772
-6.946 6.322 32.025
-4.204 6.322 33.198
8.687 6.322 33.884
-14.572 6.322 30.519
-8.315 6.322 34.562
11.453 6.322 34.405
-7.804 6.322 31.429
-13.510 6.322 32.746
-14.847 6.322 34.336
-10.638 6.322 31.697
-11.105 6.322 32.760
-15.059 6.322 33.555
-8.518 6.322 32.595
-3.569 6.322 32.512
5.130 6.322 34.860
-4.440 6.322 34.323
-4.480 6.322 33.596
-11.737 6.322 33.911
11.805 6.322 34.867
-15.942 6.322 32.580
-12.202 6.322 33.277
-4.045 6.322 32.401
-15.289 6.322 32.088
-15.218 6.322 34.120
-11.549 6.322 33.981
-14.918 6.322 33.739
-0.459 6.322 34.407
-12.192 6.322 32.755
-11.701 6.322 33.863
-11.058 6.322 33.649
4.272 6.322 33.982
-0.471 6.322 34.651
4.086 6.322 33.376
11.262 6.322 34.667
8.217 6.322 33.705
-10.962 6.322 33.455
11.202 6.322 34.300
-12.061 6.322 33.769
-0.643 6.322 32.446
-14.466 6.322 34.521
10.267 6.322 34.526
-8.817 6.322 33.365
-12.776 6.322 34.578
-6.935 6.322 32.612
-14.980 6.322 34.060
-0.295 6.322 32.887
0.339 6.322 33.988
11.102 6.322 34.329
-9.349 6.322 31.281
-12.042 6.322 34.790
1.546 6.322 33.045
-14.830 6.322 32.115
-15.154 6.322 31.311
4.691 6.322 33.928
-11.448 6.322 34.486
-8.250 6.322 32.247
-8.575 6.322 34.720
12.382 6.322 34.570
-9.193 6.322 32.351
-7.010 6.322 32.920
0.552 6.322 34.589
-4.027 6.322 32.154
-3.179 6.322 32.134
1.623 6.322 34.355
10.379 6.322 34.145
-7.452 6.322 32.400
-11.948 6.322 34.308
-9.992 6.322 32.936
-14.983 6.322 31.240
-4.306 6.322 33.246
-11.833 6.322 34.117
-13.189 6.322 31.673
-9.716 6.322 33.967
9.380 6.322 34.018
-9.171 6.322 31.322
5.856 6.322 33.770
-15.234 6.322 31.619
-1.015 6.322 32.751
0.649 6.322 32.689
11.475 6.322 34.587
-4.857 6.322 33.035
12.387 6.322 34.271
-10.980 6.322 32.096
-5.107 6.322 32.349
-12.314 6.322 30.934
-4.509 6.322 32.020
11.960 6.322 34.692
-13.331 6.322 33.136
-13.761 6.322 31.728
-4.284 6.322 34.843
8.713 6.322 34.545
7.663 6.322 34.041
8.842 6.322 34.349
-7.351 6.322 33.892
-14.480 6.322 33.420
3.340 6.322 33.784
-11.833 6.322 31.161
-3.555 6.322 32.161
-13.365 6.322 32.833
-8.291 6.322 34.141
-3.930 6.322 33.794
-10.662 6.322 33.346
-3.110 6.322 32.072
-16.025 6.322 30.999
-10.167 6.322 31.121
-15.358 6.322 30.937
3.832 6.322 33.215
-12.127 6.322 31.637
-2.711 6.322 34.858
-15.548 6.322 32.121
11.555 6.322 34.496
-10.289 6.322 34.125
-6.770 6.322 33.306
-12.933 6.322 33.965
3.103 6.322 33.532
-2.059 6.322 32.835
-6.418 6.322 33.874
-2.155 6.322 34.642
-13.823 6.322 31.775
-15.048 6.322 33.145
-15.620 6.322 31.720
-12.802 6.322 33.656
-2.336 6.322 33.872
-8.711 6.322 32.725
-2.964 6.322 33.924
-12.684 6.322 32.570
-3.970 6.322 32.072
-11.378 6.322 31.256
-9.834 6.322 32.105
-8.538 6.322 32.809
-15.005 6.322 32.760
-13.279 6.322 31.433
-13.950 6.322 33.055
6.120 6.322 34.852
-2.969 6.322 33.054
6.148 6.322 33.853
-7.391 6.322 31.763
-14.173 6.322 33.410
11.995 6.322 34.754
-12.084 6.322 34.375
-6.262 6.322 33.802
5.107 6.322 33.663
-5.275 6.322 32.035
-6.217 6.322 32.835
2.399 6.322 33.750
-0.761 6.322 33.377
-1.749 6.322 34.661
0.241 6.322 32.807
-7.199 6.322 33.727
-13.803 6.322 31.564
7.665 6.322 34.781
2.240 6.322 34.618
-0.851 6.322 32.748
-11.841 6.322 31.022
-14.905 6.322 34.023
4.418 6.322 34.790
7.593 6.322 33.880
-10.316 6.322 33.491
12.420 6.322 34.410
-9.305 6.322 34.241
-14.879 6.322 33.770
-13.261 6.322 34.083
-14.760 6.322 34.577
3.353 6.322 33.161
4.857 6.322 34.249
-7.270 6.322 33.697
-9.345 6.322 31.957
-4.831 6.322 32.163
-13.808 6.322 33.191
-0.171 6.322 33.451
-5.841 6.322 31.963
-0.989 6.322 33.736
-9.159 6.322 34.703
-9.362 6.322 32.577
-8.397 6.322 33.599
-5.738 6.322 32.298
-2.256 6.322 33.097
-2.051 6.322 33.803
-3.060 6.322 34.358
-12.165 6.322 31.864
-0.972 6.322 34.465
-7.838 6.322 34.532
-5.024 6.322 33.695
-5.841 6.322 34.797
-8.579 6.322 31.475
4.611 6.322 34.548
-10.313 6.322 32.215
-11.917 6.322 31.078
-9.920 6.322 32.445
-7.140 6.322 33.352
-5.686 6.322 33.308
-12.507 6.322 31.456
7.758 6.322 34.602
9.639 6.322 34.432
-13.945 6.322 32.860
-7.820 6.322 32.400
4.462 6.322 33.428
2.831 6.322 34.635
-2.693 6.322 33.167
-11.334 6.322 30.904
1.614 6.322 34.089
-8.856 6.322 33.771
3.208 6.322 34.479
13.057 6.322 34.719
-2.460 6.322 33.419
-1.512 6.322 33.497
-12.672 6.322 34.436
-3.945 6.322 33.635
-13.368 6.322 30.713
2.754 6.322 33.741
-5.104 6.322 33.224
-8.031 6.322 33.015
-12.122 6.322 33.286
-13.524 6.322 34.879
5.134 6.322 34.049
11.659 6.322 34.365
5.825 6.322 33.765
-9.079 6.322 31.846
3.341 6.322 33.261
1.838 6.322 33.611
2.535 6.322 34.625
-16.027 6.322 34.073
5.583 6.322 34.101
-9.869 6.322 33.527
1.564 6.322 34.627
-12.957 6.322 33.095
-11.270 6.322 34.783
-4.136 6.322 32.865
-7.626 6.322 33.387
1.064 6.322 32.758
-7.402 6.322 33.771
8.099 6.322 34.529
0.494 6.322 32.655
-11.088 6.322 32.732
0.039 6.322 34.626
5.886 6.322 34.760
-4.615 6.322 34.370
-1.648 6.322 32.877
4.779 6.322 33.638
1.051 6.322 34.208
-1.883 6.322 34.524
7.269 6.322 34.032
2.920 6.322 33.892
-6.822 6.322 34.767
11.766 6.322 34.208
7.993 6.322 34.754
-11.584 6.322 33.568
4.286 6.322 34.318
12.992 6.322 34.603
-6.245 6.322 33.581
-13.757 6.322 34.544
-14.191 6.322 32.308
-15.808 6.322 31.496
-12.502 6.322 32.085
0.572 6.322 32.940
-13.812 6.322 33.386
-16.168 6.322 31.454
3.288 6.322 34.422
-15.280 6.322 32.483
-4.594 6.322 31.858
-4.651 6.322 33.471
-12.938 6.322 31.494
1.224 6.322 34.053
7.355 6.322 34.110
-5.996 6.322 33.629
-9.641 6.322 32.274
-10.891 6.322 34.761
-1.993 6.322 34.418
0.861 6.322 34.232
-2.230 6.322 34.352
6.340 6.322 34.711
10.244 6.322 34.866
-12.205 6.322 32.371
-14.917 6.322 32.004
-4.682 6.322 32.434
-7.710 6.322 33.247
-9.392 6.322 33.415
-2.468 6.322 32.450
-14.356 6.322 34.465
-12.271 6.322 31.453
-4.006 6.322 34.279
-14.993 6.322 34.730
-4.132 6.322 33.973
1.497 6.322 32.963
-9.632 6.322 34.492
-10.304 6.322 32.492
-5.989 6.322 31.952
-14.909 6.322 32.561
-13.534 6.322 33.113
-3.511 6.322 32.388
-6.967 6.322 32.159
-14.771 6.322 34.116
-11.893 6.322 31.148
1.151 6.322 33.302
-8.381 6.322 32.502
-11.247 6.322 34.443
-2.106 6.322 33.495
9.177 6.322 34.820
-9.543 6.322 33.496
-2.802 6.322 32.528
-14.492 6.322 31.597
3.635 6.322 33.267
0.631 6.322 34.600
-2.662 6.322 32.149
-5.343 6.322 33.335
-2.312 6.322 34.159
-6.597 6.322 31.614
-13.414 6.322 34.253
13.015 6.322 34.692
-10.194 6.322 32.998
-14.972 6.322 31.029
-8.016 6.322 34.401
-5.653 6.322 34.403
-11.200 6.322 33.074
6.190 6.322 33.587
-9.422 6.322 34.312
-15.558 6.322 33.443
-6.977 6.322 32.780
9.148 6.322 34.652
-10.100 6.322 34.862
-14.484 6.322 30.901
1.249 6.322 33.899
3.547 6.322 33.263
6.337 6.322 34.892
-5.599 6.322 34.497
-6.808 6.322 33.199
-13.442 6.322 33.313
-2.653 6.322 32.685
6.118 6.322 34.316
-14.140 6.322 32.915
-3.998 6.322 33.018
-7.716 6.322 31.645
-15.424 6.322 32.270
-14.932 6.322 34.210
6.126 6.322 33.911
-10.233 6.322 34.723
-4.824 6.322 32.289
-12.387 6.322 34.332
-8.892 6.322 31.688
-11.667 6.322 33.399
-10.616 6.322 34.238
-0.904 6.322 34.081
-5.897 6.322 31.958
-10.923 6.322 32.403
-13.849 6.322 31.769
-3.191 6.322 34.871
-9.128 6.322 31.321
-15.022 6.322 34.893
-2.219 6.322 32.320
-10.632 6.322 33.047
8.800 6.322 34.358
-10.035 6.322 34.268
-0.350 6.322 32.691
-5.576 6.322 34.067
-6.499 6.322 34.662
-3.343 6.322 34.673
3.497 6.322 34.637
-4.225 6.322 31.948
-9.763 6.322 33.341
-7.356 6.322 31.868
-3.602 6.322 33.018
-15.642 6.322 34.040
5.538 6.322 33.432
-3.233 6.322 32.861
14.546 6.322 34.582
-14.924 6.322 34.209
-5.390 6.322 34.049
-0.939 6.322 33.972
-16.123 6.322 30.824
-11.386 6.322 34.848
-13.860 6.322 31.825
9.395 6.322 34.581
1.747 6.322 34.019
-9.654 6.322 34.174
0.528 6.322 34.532
-5.329 6.322 33.277
-1.662 6.322 34.143
-6.620 6.322 31.842
-12.554 6.322 33.637
12.018 6.322 34.772
-14.632 6.322 34.042
-12.347 6.322 30.917
-14.639 6.322 34.648
11.023 6.322 34.836
-12.413 6.322 32.060
8.220 6.322 33.817
2.894 6.322 34.209
-2.871 6.322 34.315
0.139 6.322 34.485
3.183 6.322 33.042
6.216 6.322 33.813
-0.468 6.322 33.540
-12.551 6.322 32.258
3.231 6.322 34.502
-8.490 6.322 31.523
-10.211 6.322 32.363
-8.990 6.322 33.281
7.280 6.322 34.090
-7.222 6.322 34.617
7.466 6.322 33.772
-6.631 6.322 31.831
-14.517 6.322 34.384
3.599 6.322 33.830
-8.483 6.322 34.536
-8.319 6.322 34.406
-9.915 6.322 33.271
2.437 6.322 33.453
3.022 6.322 34.623
-10.900 6.322 34.437
-10.103 6.322 34.403
-4.280 6.322 33.648
8.922 6.322 34.005
-11.362 6.322 32.602
-6.110 6.322 31.788
-8.205 6.322 32.573
1.349 6.322 33.305
-9.296 6.322 33.299
-11.153 6.322 33.583
-2.705 6.322 34.003
10.600 6.322 34.561
-12.764 6.322 33.009
5.505 6.322 34.594
-6.657 6.322 33.102
-15.962 6.322 30.995
-12.317 6.322 31.825
-7.991 6.322 33.967
-3.388 6.322 33.564
-4.450 6.322 33.435
-8.499 6.322 32.585
12.746 6.322 34.718
-12.071 6.322 31.539
-13.634 6.322 34.660
-9.855 6.322 34.344
10.520 6.322 34.391
5.467 6.322 33.724
-14.925 6.322 33.161
-7.837 6.322 34.707
-10.292 6.322 33.730
-13.698 6.322 34.453
-3.484 6.322 34.344
-10.571 6.322 33.296
-6.715 6.322 32.896
-13.540 6.322 34.658
-13.537 6.322 31.897
-15.418 6.322 31.353
-3.276 6.322 34.137
-7.549 6.322 33.817
-7.656 6.322 34.131
-15.124 6.322 32.577
-10.970 6.322 34.528
-7.369 6.322 33.569
-5.405 6.322 34.882
-8.575 6.322 32.955
-9.450 6.322 33.464
-2.316 6.322 32.936
-10.601 6.322 31.229
-0.629 6.322 33.186
-5.679 6.322 32.614
-0.533 6.322 32.917
-15.883 6.322 32.363
-14.291 6.322 34.861
4.363 6.322 33.307
5.378 6.322 34.390
7.675 6.322 33.754
-8.330 6.322 32.706
-11.952 6.322 34.518
-4.070 6.322 32.940
-0.751 6.322 33.157
1.028 6.322 33.689
-12.110 6.322 33.832
-14.305 6.322 31.222
-13.383 6.322 32.410
-15.835 6.322 31.772
-8.538 6.322 31.726
1.812 6.322 33.040
-6.948 6.322 33.765
-9.715 6.322 31.222
-15.924 6.322 34.312
-13.743 6.322 34.679
6.089 6.322 34.520
-6.703 6.322 32.193
-14.772 6.322 32.419
17.110 6.322 32.039
12.728 6.322 30.872
1.406 6.322 32.650
7.454 6.322 32.973
1.620 6.322 30.456
6.014 6.322 30.619
-4.320 6.322 30.933
12.052 6.322 30.370
17.106 6.322 30.400
8.818 6.322 31.714
3.269 6.322 31.848
16.601 6.322 30.698
-2.855 6.322 30.319
7.792 6.322 30.892
7.892 6.322 32.019
8.135 6.322 32.453
16.677 6.322 34.716
5.708 6.322 32.443
9.033 6.322 33.439
8.850 6.322 33.399
14.080 6.322 30.855
13.982 6.322 31.897
-10.578 6.322 30.975
-11.693 6.322 30.247
9.931 6.322 31.668
1.361 6.322 31.156
8.843 6.322 30.929
16.551 6.322 31.393
12.573 6.322 31.220
17.137 6.322 32.586
12.931 6.322 33.588
13.489 6.322 33.362
9.211 6.322 33.163
2.852 6.322 30.650
12.601 6.322 33.505
-8.155 6.322 31.143
1.564 6.322 32.052
-10.784 6.322 30.558
11.963 6.322 30.976
13.859 6.322 31.322
12.112 6.322 32.246
11.644 6.322 31.162
5.563 6.322 32.717
15.972 6.322 31.607
16.643 6.322 34.774
0.840 6.322 32.014
9.478 6.322 32.378
7.806 6.322 30.967
14.483 6.322 33.317
-6.005 6.322 31.116
4.065 6.322 30.404
-6.380 6.322 30.562
-1.313 6.322 31.370
4.601 6.322 30.418
-5.304 6.322 31.495
-12.119 6.322 30.290
12.240 6.322 32.117
4.940 6.322 31.430
3.449 6.322 32.928
11.157 6.322 31.042
13.884 6.322 31.727
15.846 6.322 33.583
4.757 6.322 31.996
-10.037 6.322 30.610
6.859 6.322 31.195
10.467 6.322 33.570
-0.067 6.322 30.874
3.775 6.322 31.817
-3.627 6.322 30.944
7.800 6.322 32.721
-12.201 6.322 30.644
-5.457 6.322 30.576
13.950 6.322 30.793
11.215 6.322 33.222
5.717 6.322 30.549
14.722 6.322 32.124
8.185 6.322 30.529
16.683 6.322 33.388
11.073 6.322 32.223
8.167 6.322 33.352
17.018 6.322 33.233
0.607 6.322 30.950
-9.882 6.322 30.672
-1.039 6.322 32.126
-3.505 6.322 31.062
1.234 6.322 31.694
13.902 6.322 31.677
11.639 6.322 31.613
12.437 6.322 33.610
4.872 6.322 32.075
-2.917 6.322 31.684
-0.098 6.322 32.104
11.238 6.322 30.436
7.362 6.322 31.501
7.515 6.322 32.769
10.062 6.322 31.967
15.648 6.322 32.997
15.317 6.322 32.883
8.466 6.322 30.909
9.380 6.322 33.684
8.279 6.322 31.124
17.193 6.322 31.212
5.144 6.322 31.833
8.126 6.322 30.387
2.623 6.322 32.483
-5.768 6.322 30.919
1.351 6.322 30.702
6.307 6.322 33.039
-2.367 6.322 32.004
15.409 6.322 31.361
14.540 6.322 34.245
16.263 6.322 30.748
-8.090 6.322 30.523
-11.941 6.322 30.267
-7.543 6.322 30.791
11.986 6.322 30.610
13.935 6.322 32.405
-7.376 6.322 30.864
1.654 6.322 30.371
14.223 6.322 31.398
0.978 6.322 30.736
13.095 6.322 32.294
14.829 6.322 30.358
8.406 6.322 30.561
9.594 6.322 33.611
11.836 6.322 30.299
5.719 6.322 33.151
9.677 6.322 31.318
-0.993 6.322 30.309
16.560 6.322 34.172
-2.517 6.322 31.416
6.100 6.322 30.455
12.184 6.322 32.041
5.001 6.322 30.904
9.254 6.322 33.289
6.553 6.322 31.350
15.232 6.322 31.367
11.538 6.322 30.383
16.863 6.322 33.647
-1.085 6.322 30.906
3.780 6.322 31.839
15.768 6.322 33.941
16.181 6.322 34.751
-1.690 6.322 31.217
-2.242 6.322 31.112
12.094 6.322 30.929
3.945 6.322 32.604
14.956 6.322 31.475
12.737 6.322 32.274
16.888 6.322 31.830
5.242 6.322 32.923
-1.967 6.322 30.526
12.443 6.322 32.936
12.024 6.322 33.683
14.235 6.322 32.344
14.377 6.322 30.874
6.231 6.322 32.076
-2.932 6.322 30.828
9.178 6.322 33.153
12.599 6.322 31.747
-9.798 6.322 30.730
8.564 6.322 32.021
-5.822 6.322 30.968
4.414 6.322 31.012
2.227 6.322 30.504
-1.114 6.322 31.605
-3.802 6.322 31.732
-0.911 6.322 31.603
9.843 6.322 33.579
-10.942 6.322 30.635
10.660 6.322 31.139
12.613 6.322 32.657
9.376 6.322 30.327
13.166 6.322 33.821
-5.582 6.322 30.984
-4.006 6.322 31.811
-4.106 6.322 30.783
4.883 6.322 32.040
6.767 6.322 32.063
7.561 6.322 31.696
-0.292 6.322 30.887
9.050 6.322 32.769
9.574 6.322 33.616
3.207 6.322 30.479
13.363 6.322 33.108
-1.832 6.322 30.940
5.938 6.322 30.604
7.177 6.322 30.312
-7.608 6.322 30.497
2.651 6.322 32.445
16.262 6.322 32.515
5.822 6.322 30.235
11.156 6.322 33.891
7.937 6.322 30.305
15.910 6.322 33.622
3.654 6.322 32.568
14.041 6.322 30.207
-1.357 6.322 31.283
10.095 6.322 32.224
-0.163 6.322 31.618
10.253 6.322 33.173
7.424 6.322 31.715
8.439 6.322 30.487
15.264 6.322 32.986
9.175 6.322 31.961
14.831 6.322 34.158
0.393 6.322 32.166
12.470 6.322 33.049
6.823 6.322 32.413
-2.298 6.322 30.806
-11.976 6.322 30.554
0.063 6.322 31.651
-9.719 6.322 30.734
4.212 6.322 32.201
11.209 6.322 32.868
-0.253 6.322 31.227
8.108 6.322 31.995
15.168 6.322 31.747
16.019 6.322 34.604
11.835 6.322 32.486
-5.569 6.322 31.375
7.513 6.322 30.286
14.841 6.322 33.031
0.342 6.322 31.974
-5.978 6.322 31.556
17.114 6.322 32.432
14.287 6.322 32.394
-12.970 6.322 30.541
13.665 6.322 31.170
4.611 6.322 32.816
17.143 6.322 31.075
12.254 6.322 32.114
14.423 6.322 30.349
12.305 6.322 30.360
11.105 6.322 30.702
3.056 6.322 30.869
7.911 6.322 31.133
14.775 6.322 30.368
1.544 6.322 31.825
8.179 6.322 33.429
11.377 6.322 32.394
1.350 6.322 30.458
4.221 6.322 30.952
-11.483 6.322 30.704
7.201 6.322 31.862
-2.737 6.322 30.757
12.920 6.322 32.595
14.905 6.322 34.160
11.211 6.322 33.769
10.252 6.322 30.496
1.299 6.322 30.937
10.956 6.322 30.988
10.634 6.322 31.987
16.328 6.322 32.497
12.550 6.322 32.325
10.359 6.322 32.830
-5.328 6.322 30.549
1.750 6.322 30.420
10.904 6.322 31.909
-5.045 6.322 30.328
1.340 6.322 30.603
5.434 6.322 32.589
1.209 6.322 30.783
2.693 6.322 31.470
-0.132 6.322 31.374
-7.396 6.322 31.135
5.469 6.322 31.557
2.562 6.322 31.940
13.579 6.322 32.025
15.950 6.322 32.478
0.914 6.322 32.059
8.625 6.322 32.252
8.597 6.322 30.811
12.761 6.322 34.129
4.417 6.322 30.586
14.612 6.322 31.304
11.928 6.322 33.839
11.826 6.322 30.712
-12.833 6.322 30.269
4.254 6.322 31.741
1.121 6.322 31.102
-1.892 6.322 30.403
-4.329 6.322 31.537
11.189 6.322 30.941
16.640 6.322 33.096
12.653 6.322 30.277
7.622 6.322 32.513
2.426 6.322 30.613
1.244 6.322 30.371
16.474 6.322 32.716
-10.225 6.322 30.462
4.457 6.322 31.580
3.409 6.322 30.522
7.203 6.322 31.304
14.947 6.322 33.065
14.263 6.322 32.577
15.786 6.322 33.716
2.869 6.322 30.203
10.269 6.322 31.453
2.919 6.322 32.241
-5.674 6.322 31.130
11.632 6.322 30.404
-8.955 6.322 30.403
13.032 6.322 33.386
6.998 6.322 31.522
10.043 6.322 31.642
8.659 6.322 33.352
-7.150 6.322 31.192
3.847 6.322 32.761
15.025 6.322 30.433
2.221 6.322 31.853
0.518 6.322 32.464
10.459 6.322 32.986
-6.191 6.322 30.793
-8.900 6.322 30.356
15.555 6.322 30.293
12.068 6.322 31.187
16.910 6.322 31.897
-9.065 6.322 30.876
3.824 6.322 30.815
14.426 6.322 32.193
1.678 6.322 30.975
4.273 6.322 31.070
5.126 6.322 30.957
9.243 6.322 32.068
13.765 6.322 33.932
3.033 6.322 32.357
-2.923 6.322 30.690
15.833 6.322 33.501
14.145 6.322 31.675
12.142 6.322 33.918
12.097 6.322 32.048
5.053 6.322 32.012
1.664 6.322 32.339
16.763 6.322 30.520
-0.139 6.322 30.843
9.440 6.322 33.166
-5.916 6.322 31.077
1.397 6.322 30.468
4.837 6.322 31.886
7.649 6.322 32.714
12.096 6.322 33.252
15.983 6.322 32.161
15.622 6.322 32.150
4.328 6.322 31.097
14.282 6.322 34.319
-7.422 6.322 31.386
13.269 6.322 30.996
8.460 6.322 33.437
14.364 6.322 30.351
-3.099 6.322 30.778
15.171 6.322 31.091
-4.204 6.322 31.705
16.489 6.322 33.667
5.347 6.322 32.810
-1.365 6.322 30.308
-2.420 6.322 30.228
14.394 6.322 32.483
-2.879 6.322 30.602
12.049 6.322 33.268
11.280 6.322 30.831
-8.385 6.322 30.712
-8.368 6.322 30.616
7.593 6.322 30.745
10.184 6.322 30.493
9.418 6.322 32.771
-6.036 6.322 31.349
14.831 6.322 32.345
10.829 6.322 31.102
9.017 6.322 30.257
14.641 6.322 32.068
16.328 6.322 33.200
8.636 6.322 30.853
14.742 6.322 32.722
10.958 6.322 31.389
-6.730 6.322 30.277
12.219 6.322 33.322
0.452 6.322 30.923
8.766 6.322 31.975
-4.293 6.322 30.987
12.019 6.322 33.213
10.896 6.322 33.211
11.136 6.322 31.852
14.034 6.322 32.444
1.353 6.322 31.778
8.995 6.322 33.473
16.963 6.322 34.468
16.590 6.322 34.209
-12.437 6.322 30.532
2.938 6.322 31.230
5.346 6.322 31.385
11.927 6.322 30.482
-3.403 6.322 30.902
14.516 6.322 33.603
-1.507 6.322 31.769
-11.815 6.322 30.450
16.428 6.322 33.919
11.026 6.322 33.029
5.752 6.322 31.882
11.694 6.322 31.889
6.684 6.322 33.230
3.386 6.322 32.207
1.092 6.322 32.004
13.525 6.322 34.369
1.742 6.322 30.878
12.188 6.322 33.294
1.704 6.322 30.776
12.603 6.322 33.342
11.024 6.322 32.309
8.559 6.322 31.000
-0.487 6.322 30.334
7.410 6.322 33.080
-1.463 6.322 31.342
-5.550 6.322 30.268
3.397 6.322 32.157
-2.923 6.322 31.508
8.506 6.322 30.392
6.477 6.322 31.166
3.455 6.322 31.983
5.201 6.322 32.670
12.766 6.322 33.908
7.950 6.322 30.853
1.099 6.322 31.715
3.056 6.322 31.000
3.532 6.322 32.329
8.806 6.322 33.444
15.618 6.322 33.961
0.209 6.322 30.715
-1.236 6.322 31.130
7.155 6.322 33.148
10.419 6.322 31.824
15.362 6.322 31.311
17.007 6.322 31.640
5.670 6.322 31.181
13.867 6.322 32.161
-1.844 6.322 31.085
14.908 6.322 32.314
-11.886 6.322 30.771
14.574 6.322 31.235
-13.286 6.322 30.250
16.869 6.322 31.276
-1.397 6.322 30.709
-2.203 6.322 32.031
6.398 6.322 32.711
8.376 6.322 32.272
12.876 6.322 33.789
12.124 6.322 34.100
11.878 6.322 30.535
12.545 6.322 32.161
5.148 6.322 30.956
14.272 6.322 30.499
8.744 6.322 30.202
-4.575 6.322 31.060
6.840 6.322 30.760
-6.345 6.322 30.970
5.007 6.322 31.978
13.043 6.322 30.825
1.320 6.322 31.878
10.008 6.322 32.392
12.554 6.322 30.598
7.271 6.322 32.850
6.249 6.322 33.165
-4.684 6.322 31.495
10.757 6.322 31.455
8.009 6.322 31.929
16.042 6.322 31.964
4.575 6.322 32.074
13.320 6.322 31.158
-4.799 6.322 30.502
5.086 6.322 30.807
8.046 6.322 31.406
0.210 6.322 31.024
9.428 6.322 33.710
7.396 6.322 31.568
6.912 6.322 32.619
2.955 6.322 31.100
9.111 6.322 30.727
4.333 6.322 31.454
13.843 6.322 33.930
9.626 6.322 32.916
10.048 6.322 30.304
9.966 6.322 30.209
3.552 6.322 30.463
-4.243 6.322 30.606
0.090 6.322 30.916
-4.845 6.322 31.328
2.638 6.322 30.549
14.371 6.322 33.333
14.630 6.322 31.953
6.555 6.322 32.023
8.084 6.322 32.389
14.431 6.322 31.107
9.812 6.322 32.228
-6.338 6.322 30.256
-10.261 6.322 30.553
-5.754 6.322 30.302
5.909 6.322 30.465
15.815 6.322 33.942
9.232 6.322 31.725
11.220 6.322 33.609
13.810 6.322 30.747
3.437 6.322 32.101
12.088 6.322 33.152
15.917 6.322 31.136
7.554 6.322 32.893
2.626 6.322 31.603
-6.821 6.322 31.280
11.306 6.322 31.422
11.389 6.322 32.717
13.943 6.322 30.327
14.795 6.322 32.731
-4.227 6.322 30.940
3.494 6.322 30.364
1.801 6.322 31.725
7.128 6.322 32.734
-3.211 6.322 32.021
-5.835 6.322 30.296
3.046 6.322 32.819
1.082 6.322 31.461
8.830 6.322 32.960
17.008 6.322 32.889
1.544 6.322 32.005
16.402 6.322 33.216
14.488 6.322 30.319
13.654 6.322 33.629
17.095 6.322 32.352
14.721 6.322 31.875
14.682 6.322 34.003
-2.925 6.322 31.879
11.188 6.322 30.614
2.311 6.322 30.574
13.719 6.322 32.182
5.053 6.322 32.666
-5.317 6.322 31.205
11.521 6.322 32.717
5.309 6.322 31.001
1.767 6.322 31.511
10.116 6.322 32.460
0.248 6.322 31.660
13.832 6.322 30.268
15.109 6.322 33.014
5.036 6.322 31.496
11.812 6.322 31.760
8.530 6.322 30.209
0.577 6.322 31.337
-0.081 6.322 32.239
15.280 6.322 30.343
13.340 6.322 33.769
14.334 6.322 31.147
11.404 6.322 33.892
10.375 6.322 31.437
10.445 6.322 33.450
12.831 6.322 30.222
12.560 6.322 32.647
-2.324 6.322 31.385
7.355 6.322 32.368
-1.242 6.347 33.425
15.697 6.347 32.883
14.394 6.347 32.186
9.192 6.347 31.601
12.448 6.347 33.919
-12.732 6.347 34.874
4.462 6.347 33.866
4.371 6.347 34.088
0.786 6.347 33.173
17.143 6.347 31.811
-2.849 6.347 34.430
-1.954 6.347 33.801
-9.754 6.347 34.463
2.731 6.347 34.847
8.836 6.347 32.034
8.368 6.347 32.362
15.177 6.347 33.987
9.513 6.347 31.944
5.987 6.347 32.228
1.782 6.347 32.690
-13.988 6.347 34.766
-12.709 6.347 34.428
14.125 6.347 30.884
1.233 6.347 34.362
9.011 6.347 34.189
14.964 6.347 31.587
11.360 6.347 34.711
11.425 6.347 31.485
8.249 6.347 33.455
4.672 6.347 34.110
7.888 6.347 31.598
8.390 6.347 32.653
-8.809 6.347 34.588
4.807 6.347 34.318
-8.341 6.347 34.659
2.757 6.347 34.402
7.765 6.347 32.087
3.323 6.347 34.166
15.381 6.347 31.868
14.102 6.347 32.320
-8.611 6.347 34.222
3.120 6.347 32.487
6.235 6.347 32.750
15.638 6.347 33.849
9.404 6.347 34.520
6.975 6.347 33.979
15.749 6.347 34.448
0.812 6.347 33.203
15.936 6.347 30.885
-6.358 6.347 34.645
11.696 6.347 32.472
-11.610 6.347 34.815
11.826 6.347 34.001
-4.455 6.347 34.268
6.824 6.347 33.914
16.544 6.347 30.748
10.827 6.347 31.638
-3.651 6.347 34.087
-7.714 6.347 33.934
12.930 6.347 32.452
13.565 6.347 32.999
11.265 6.347 34.002
11.216 6.347 34.261
12.216 6.347 31.628
15.459 6.347 32.630
-5.989 6.347 34.757
8.579 6.347 32.748
-1.987 6.347 34.478
-4.195 6.347 34.582
2.621 6.347 34.409
-5.137 6.347 34.710
2.009 6.347 32.433
8.733 6.347 34.773
3.241 6.347 33.151
-1.045 6.347 33.088
2.981 6.347 33.931
11.652 6.347 34.529
10.929 6.347 34.534
-3.125 6.347 34.312
8.013 6.347 32.181
-6.068 6.347 33.835
12.864 6.347 33.723
5.205 6.347 33.126
0.363 6.347 34.265
15.404 6.347 32.727
1.135 6.347 33.829
13.479 6.347 33.057
-3.452 6.347 34.140
1.987 6.347 33.764
-9.479 6.347 34.639
7.897 6.347 31.728
11.169 6.347 34.827
-7.659 6.347 34.847
4.669 6.347 34.679
17.166 6.347 32.325
8.103 6.347 31.888
9.714 6.347 33.822
-7.879 6.347 33.953
11.086 6.347 34.719
13.959 6.347 34.068
14.954 6.347 33.624
14.839 6.347 30.924
17.147 6.347 30.738
3.808 6.347 34.455
6.009 6.347 31.910
16.688 6.347 31.249
3.742 6.347 32.694
3.214 6.347 34.819
1.349 6.347 34.833
11.834 6.347 31.314
7.335 6.347 34.279
3.652 6.347 34.223
9.948 6.347 31.871
12.797 6.347 30.974
16.534 6.347 31.344
-12.470 6.347 34.696
9.132 6.347 31.432
14.251 6.347 33.125
14.034 6.347 34.549
-6.049 6.347 34.895
2.692 6.347 34.352
-10.904 6.347 34.629
0.986 6.347 34.108
1.566 6.347 34.278
-11.851 6.347 34.555
-1.199 6.347 33.770
12.278 6.347 33.518
16.041 6.347 33.799
12.250 6.347 33.054
13.379 6.347 31.079
15.645 6.347 31.971
4.475 6.347 34.224
14.438 6.347 34.801
10.744 6.347 32.745
16.497 6.347 33.237
14.175 6.347 30.822
-4.044 6.347 33.259
5.412 6.347 32.925
16.060 6.347 30.521
2.743 6.347 33.852
15.419 6.347 30.762
10.968 6.347 33.536
4.907 6.347 32.747
-1.237 6.347 33.197
15.987 6.347 30.516
11.019 6.347 34.672
10.536 6.347 31.978
0.586 6.347 34.580
11.184 6.347 32.714
-1.112 6.347 32.964
-5.275 6.347 33.640
13.481 6.347 32.608
5.360 6.347 32.090
14.398 6.347 31.502
-14.297 6.347 34.829
-5.678 6.347 34.748
-2.921 6.347 34.514
9.976 6.347 32.503
-7.002 6.347 33.693
3.897 6.347 34.112
16.136 6.347 30.795
11.425 6.347 33.645
7.701 6.347 34.850
-6.283 6.347 34.391
-11.290 6.347 34.809
12.714 6.347 33.141
-4.200 6.347 33.304
4.171 6.347 32.699
12.922 6.347 32.865
-4.356 6.347 34.748
14.444 6.347 32.058
16.220 6.347 34.525
13.693 6.347 31.774
5.188 6.347 33.835
6.636 6.347 34.327
15.801 6.347 33.935
5.530 6.347 32.746
-6.586 6.347 34.288
10.372 6.347 33.970
3.262 6.347 33.048
16.959 6.347 34.806
-2.640 6.347 33.222
4.444 6.347 34.183
-0.749 6.347 33.804
6.783 6.347 34.414
11.601 6.347 32.894
3.782 6.347 34.874
12.896 6.347 34.398
1.266 6.347 33.542
12.138 6.347 32.963
-9.463 6.347 34.606
-12.144 6.347 34.796
-0.255 6.347 34.677
12.242 6.347 34.819
-11.913 6.347 34.484
10.028 6.347 32.749
16.850 6.347 32.571
7.921 6.347 33.307
4.096 6.347 33.057
-9.402 6.347 34.549
15.730 6.347 33.486
-5.852 6.347 33.901
-0.463 6.347 32.945
15.213 6.347 31.899
-10.831 6.347 34.575
2.627 6.347 33.920
8.188 6.347 33.514
8.067 6.347 33.689
11.933 6.347 31.437
-6.588 6.347 34.296
-0.217 6.347 32.729
-2.525 6.347 33.788
-6.295 6.347 34.662
15.560 6.347 33.434
14.980 6.347 34.648
-3.961 6.347 34.643
5.039 6.347 32.060
16.718 6.347 33.033
16.400 6.347 31.538
-7.677 6.347 34.412
8.166 6.347 34.635
7.536 6.347 33.919
13.198 6.347 31.508
-9.040 6.347 34.494
4.128 6.347 34.715
-0.731 6.347 34.087
-5.248 6.347 34.707
-7.782 6.347 34.375
13.637 6.347 33.886
14.149 6.347 34.737
2.100 6.347 33.121
6.157 6.347 34.645
3.563 6.347 32.849
6.293 6.347 34.582
11.937 6.347 33.858
2.525 6.347 33.327
-12.656 6.347 34.597
-1.341 6.347 34.234
12.837 6.347 33.018
16.505 6.347 32.463
2.166 6.347 33.977
8.788 6.347 34.353
7.275 6.347 31.759
8.234 6.347 32.953
8.097 6.347 32.788
-1.075 6.347 34.744
12.088 6.347 32.745
16.991 6.347 34.553
15.555 6.347 30.737
5.512 6.347 33.850
1.293 6.347 34.075
-1.555 6.347 33.718
4.405 6.347 34.018
7.197 6.347 32.865
-2.284 6.347 33.617
-7.130 6.347 34.353
0.331 6.347 33.372
-1.143 6.347 34.195
-0.603 6.347 33.890
-1.570 6.347 34.302
3.761 6.347 33.878
11.384 6.347 33.396
8.415 6.347 32.020
12.261 6.347 33.428
-8.966 6.347 34.008
2.552 6.347 34.367
5.973 6.347 34.230
-4.487 6.347 33.291
15.788 6.347 33.852
14.151 6.347 31.114
8.881 6.347 31.648
-2.262 6.347 33.707
10.632 6.347 32.362
-1.964 6.347 33.147
2.699 6.347 34.007
15.046 6.347 32.220
10.887 6.347 33.916
7.125 6.347 33.681
0.629 6.347 34.577
10.011 6.347 32.159
15.676 6.347 34.574
-7.001 6.347 33.967
16.615 6.347 33.893
-9.325 6.347 34.383
13.904 6.347 34.460
12.052 6.347 34.546
8.480 6.347 32.624
14.568 6.347 33.400
-12.850 6.347 34.709
-5.865 6.347 33.600
11.202 6.347 31.719
16.056 6.347 34.450
-4.644 6.347 34.532
-4.292 6.347 34.390
3.925 6.347 34.883
14.090 6.347 34.101
7.996 6.347 34.250
2.271 6.347 32.882
15.938 6.347 32.400
-12.071 6.347 34.488
5.565 6.347 32.506
15.114 6.347 34.646
4.769 6.347 32.717
-1.407 6.347 34.724
16.243 6.347 32.911
-1.330 6.347 33.539
-2.832 6.347 34.540
0.915 6.347 34.160
10.485 6.347 34.574
-4.681 6.347 34.399
6.033 6.347 32.947
-9.034 6.347 34.506
10.799 6.347 33.523
1.954 6.347 32.603
10.438 6.347 32.179
13.625 6.347 32.539
7.683 6.347 31.920
6.754 6.347 33.908
15.067 6.347 31.140
-5.685 6.347 33.969
11.826 6.347 32.273
1.000 6.347 33.726
-7.922 6.347 34.065
12.591 6.347 31.716
0.356 6.347 34.321
16.003 6.347 34.792
8.094 6.347 32.980
3.409 6.347 34.113
2.283 6.347 34.224
12.134 6.347 31.023
0.672 6.347 33.233
15.921 6.347 33.857
5.160 6.347 32.224
5.125 6.347 34.207
12.215 6.347 33.435
6.918 6.347 33.676
12.791 6.347 33.361
8.374 6.347 33.090
12.463 6.347 31.093
9.450 6.347 34.042
7.688 6.347 32.388
-5.726 6.347 34.570
-13.227 6.347 34.519
8.636 6.347 34.524
-11.289 6.347 34.529
6.061 6.347 34.615
6.563 6.347 34.200
14.131 6.347 33.865
9.377 6.347 33.690
-1.982 6.347 34.382
5.154 6.347 32.472
1.455 6.347 32.781
-4.324 6.347 34.223
13.500 6.347 34.004
13.473 6.347 30.884
15.373 6.347 31.689
13.500 6.347 32.321
3.537 6.347 32.685
-8.122 6.347 34.685
9.662 6.347 34.030
3.619 6.347 33.233
-6.154 6.347 33.572
7.638 6.347 34.148
-4.326 6.347 34.306
15.623 6.347 34.866
6.291 6.347 32.283
-2.505 6.347 33.665
16.660 6.347 31.146
15.523 6.347 32.282
3.435 6.347 34.092
-9.238 6.347 34.832
12.170 6.347 31.395
6.309 6.347 33.624
11.405 6.347 31.328
8.077 6.347 32.928
14.254 6.347 30.693
16.013 6.347 32.038
11.047 6.347 31.597
-3.367 6.347 34.682
11.289 6.347 33.950
13.582 6.347 34.248
4.540 6.347 34.509
-8.180 6.347 34.228
2.583 6.347 34.861
2.909 6.347 33.274
10.860 6.347 32.239
-9.665 6.347 34.828
-7.792 6.347 34.191
10.180 6.347 34.083
14.274 6.347 34.197
-0.965 6.347 33.508
15.177 6.347 31.111
13.060 6.347 31.833
-0.592 6.347 34.787
-10.300 6.347 34.109
14.655 6.347 34.291
5.477 6.347 33.643
16.358 6.347 30.733
12.513 6.347 32.335
13.297 6.347 34.555
11.479 6.347 32.813
15.926 6.347 34.868
5.696 6.347 31.845
16.347 6.347 31.253
-5.302 6.347 33.780
-2.947 6.347 33.149
8.949 6.347 33.062
15.923 6.347 33.945
13.417 6.347 31.559
-6.053 6.347 34.098
9.258 6.347 33.004
-6.911 6.347 34.752
12.487 6.347 33.578
11.859 6.347 32.966
-7.124 6.347 34.793
-6.766 6.347 33.663
15.729 6.347 30.567
1.149 6.347 32.505
16.609 6.347 33.104
4.080 6.347 33.115
6.084 6.347 32.842
9.760 6.347 34.135
4.061 6.347 32.293
4.911 6.347 33.848
-12.264 6.347 34.893
10.637 6.347 34.593
11.304 6.347 33.299
3.922 6.347 32.684
-5.605 6.347 34.741
-4.217 6.347 34.058
-8.859 6.347 34.110
-12.384 6.347 34.461
10.167 6.347 33.319
16.714 6.347 33.756
14.964 6.347 31.221
14.202 6.347 33.759
11.600 6.347 34.731
8.231 6.347 34.201
5.220 6.347 33.880
-2.297 6.347 34.657
4.088 6.347 34.779
13.192 6.347 30.947
-7.157 6.347 34.104
0.267 6.347 33.415
16.162 6.347 32.704
9.564 6.347 31.843
16.387 6.347 34.023
-1.929 6.347 34.247
4.230 6.347 32.074
10.464 6.347 31.984
15.121 6.347 33.524
-13.067 6.347 34.563
4.359 6.347 34.109
0.003 6.347 33.180
7.310 6.347 32.490
16.455 6.347 31.554
-6.837 6.347 34.847
-8.315 6.347 34.539
15.985 6.347 33.080
-2.848 6.347 33.503
1.589 6.347 33.374
-0.577 6.347 33.046
-2.395 6.347 34.439
12.942 6.347 32.960
10.243 6.347 33.723
14.656 6.347 31.603
13.538 6.347 31.674
16.684 6.347 33.597
16.209 6.347 31.342
2.939 6.347 32.259
15.643 6.347 33.975
10.447 6.347 31.829
12.222 6.347 32.694
12.838 6.347 33.170
12.372 6.347 34.228
10.581 6.347 31.888
15.277 6.347 31.437
-4.652 6.347 34.540
-2.833 6.347 33.754
16.095 6.347 33.509
11.011 6.347 34.838
4.535 6.347 34.008
9.005 6.347 33.224
10.088 6.347 32.387
1.411 6.347 32.622
6.954 6.347 32.226
14.616 6.347 31.830
2.494 6.347 33.414
14.513 6.347 32.514
16.629 6.347 30.767
-0.184 6.347 32.778
10.637 6.347 34.379
6.102 6.347 33.438
14.252 6.347 33.117
6.849 6.347 31.666
5.785 6.347 34.750
1.825 6.347 32.508
-1.316 6.347 34.870
12.737 6.347 31.012
1.675 6.347 33.057
2.178 6.347 34.165
17.031 6.347 33.633
-0.568 6.347 33.337
11.698 6.347 34.331
12.585 6.347 34.698
10.181 6.347 34.494
15.470 6.347 32.600
3.856 6.347 34.003
10.265 6.347 32.666
11.909 6.347 33.082
-3.039 6.347 34.167
0.476 6.347 32.612
-8.717 6.347 34.782
10.728 6.347 33.453
-4.012 6.347 33.576
8.005 6.347 33.123
-2.959 6.347 33.540
0.433 6.347 32.788
14.901 6.347 33.837
-15.258 6.347 34.832
-12.520 6.347 34.567
16.422 6.347 30.354
16.338 6.347 30.835
9.479 6.347 33.136
15.498 6.347 33.272
-0.281 6.347 32.833
8.295 6.347 31.856
15.647 6.347 31.589
7.882 6.347 34.238
16.779 6.347 31.898
1.419 6.347 34.493
2.628 6.347 34.204
16.807 6.347 34.124
14.128 6.347 33.164
-5.239 6.347 33.890
-0.913 6.347 34.264
2.339 6.347 34.090
9.048 6.347 34.504
9.850 6.347 33.414
8.386 6.347 33.557
16.850 6.347 31.418
4.247 6.347 34.735
-4.193 6.347 33.287
9.117 6.347 33.470
-1.278 6.347 33.699
4.439 6.347 33.476
13.360 6.347 32.435
4.827 6.347 32.242
-7.131 6.347 34.601
2.626 6.347 34.861
14.569 6.347 30.910
16.330 6.347 31.996
-4.861 6.347 34.692
10.240 6.347 33.468
6.434 6.347 34.384
7.074 6.347 32.640
-9.563 6.347 30.685
-9.315 6.347 30.616
-12.855 6.347 32.025
-3.265 6.347 31.647
-10.718 6.347 33.935
-7.401 6.347 30.659
-6.043 6.347 32.359
5.100 6.347 31.052
-6.809 6.347 32.883
-13.582 6.347 30.289
-5.342 6.347 33.276
-9.705 6.347 32.671
-4.855 6.347 31.527
2.803 6.347 30.583
-13.368 6.347 32.295
-4.364 6.347 31.753
-12.617 6.347 33.981
6.229 6.347 31.163
-11.949 6.347 31.745
-3.699 6.347 31.562
-13.016 6.347 33.726
-15.156 6.347 34.200
0.236 6.347 30.339
-6.081 6.347 31.375
-2.942 6.347 30.265
-15.782 6.347 30.508
-3.134 6.347 30.761
-12.822 6.347 31.864
5.470 6.347 31.530
-15.191 6.347 33.359
-13.613 6.347 33.204
-12.480 6.347 32.257
-2.249 6.347 31.589
-14.075 6.347 30.316
-10.404 6.347 30.284
-5.941 6.347 33.419
-12.362 6.347 33.508
1.333 6.347 31.348
-16.070 6.347 34.024
-12.913 6.347 30.873
-4.237 6.347 31.218
4.755 6.347 31.153
-7.026 6.347 31.562
-11.933 6.347 31.931
-9.536 6.347 33.699
-1.221 6.347 32.685
-9.556 6.347 31.286
-9.203 6.347 33.885
-16.059 6.347 33.122
-13.849 6.347 31.569
11.375 6.347 30.284
-6.220 6.347 31.847
-12.446 6.347 32.900
-13.144 6.347 30.616
-12.809 6.347 30.296
-0.264 6.347 32.375
-8.691 6.347 33.490
-7.971 6.347 31.413
2.939 6.347 30.593
-11.785 6.347 30.806
-8.078 6.347 30.899
13.916 6.347 30.593
-10.801 6.347 33.967
-13.928 6.347 33.513
-0.966 6.347 32.736
1.735 6.347 32.168
-10.063 6.347 31.056
-4.108 6.347 32.725
-12.677 6.347 30.299
-11.509 6.347 32.787
-10.188 6.347 32.294
-8.853 6.347 30.992
-14.161 6.347 31.454
-14.894 6.347 31.151
-11.259 6.347 34.174
-1.087 6.347 31.485
-14.722 6.347 34.352
-8.798 6.347 32.393
-12.557 6.347 33.394
-12.536 6.347 32.108
9.041 6.347 30.443
-13.098 6.347 32.562
4.802 6.347 31.269
-15.145 6.347 33.842
-1.590 6.347 31.834
-7.043 6.347 32.807
-5.816 6.347 30.857
-2.187 6.347 31.276
-6.571 6.347 32.290
-11.135 6.347 30.596
-3.993 6.347 30.528
-4.569 6.347 31.946
3.061 6.347 31.886
-5.261 6.347 32.523
-12.177 6.347 32.530
4.128 6.347 30.344
13.795 6.347 30.582
-11.044 6.347 31.216
-12.175 6.347 30.843
-4.843 6.347 33.119
-11.896 6.347 34.057
3.909 6.347 31.291
-5.973 6.347 30.567
-2.136 6.347 32.273
-3.450 6.347 30.798
9.143 6.347 30.962
-13.478 6.347 34.323
1.661 6.347 30.703
6.706 6.347 30.269
-5.623 6.347 32.873
-3.822 6.347 30.325
6.053 6.347 30.953
-4.753 6.347 32.293
-6.361 6.347 33.108
-11.739 6.347 31.035
-4.926 6.347 33.197
-13.180 6.347 30.760
-6.707 6.347 31.196
12.728 6.347 30.222
5.191 6.347 30.574
10.741 6.347 31.103
5.135 6.347 31.472
-2.277 6.347 30.731
-11.455 6.347 32.110
-10.001 6.347 30.673
2.377 6.347 31.111
-7.858 6.347 30.870
-9.943 6.347 32.595
4.411 6.347 31.157
-5.742 6.347 30.481
-11.342 6.347 30.856
-16.185 6.347 32.195
-12.339 6.347 30.748
-5.246 6.347 31.565
-12.528 6.347 32.338
7.107 6.347 31.314
-1.782 6.347 30.248
-14.823 6.347 33.712
-4.899 6.347 31.503
1.665 6.347 30.854
-7.369 6.347 33.416
-11.802 6.347 33.002
-2.153 6.347 30.657
2.428 6.347 32.192
-4.789 6.347 32.687
2.342 6.347 30.555
-7.553 6.347 33.179
-3.103 6.347 31.397
-15.992 6.347 31.025
-12.926 6.347 33.511
-9.293 6.347 30.379
-14.530 6.347 32.108
4.716 6.347 31.405
12.973 6.347 30.748
-10.467 6.347 30.267
-1.418 6.347 32.044
-3.525 6.347 30.764
-15.528 6.347 31.976
-11.499 6.347 31.419
-13.238 6.347 30.843
-10.806 6.347 32.072
-2.139 6.347 31.106
-16.123 6.347 31.410
-8.310 6.347 32.035
-11.541 6.347 32.998
4.643 6.347 31.391
-11.924 6.347 33.218
-8.345 6.347 30.665
2.022 6.347 30.771
8.673 6.347 31.244
2.586 6.347 31.643
2.554 6.347 31.494
6.071 6.347 31.463
3.713 6.347 31.226
-3.868 6.347 32.825
-12.628 6.347 32.028
-11.322 6.347 30.855
4.701 6.347 30.701
-2.225 6.347 31.309
-3.315 6.347 30.939
-14.274 6.347 33.914
-15.593 6.347 32.551
-14.775 6.347 31.331
4.225 6.347 30.860
-4.208 6.347 33.022
-9.769 6.347 32.074
1.451 6.347 30.980
-14.146 6.347 30.306
-14.372 6.347 31.614
16.067 6.347 30.356
-2.373 6.347 31.422
-11.259 6.347 31.474
-16.053 6.347 33.416
-7.010 6.347 31.321
-6.189 6.347 33.157
-0.802 6.347 32.564
-9.340 6.347 32.140
-10.509 6.347 31.181
5.285 6.347 31.700
2.102 6.347 30.348
-12.381 6.347 31.951
-12.364 6.347 30.677
6.413 6.347 31.664
-13.421 6.347 32.866
-4.474 6.347 31.120
0.302 6.347 32.277
-7.102 6.347 33.600
-14.451 6.347 34.387
-13.964 6.347 34.222
-4.267 6.347 32.720
-6.284 6.347 31.318
-9.804 6.347 32.573
-12.823 6.347 34.096
-1.342 6.347 30.528
-12.378 6.347 31.571
-3.213 6.347 33.001
-3.032 6.347 30.734
6.318 6.347 30.898
-1.413 6.347 31.780
-15.570 6.347 33.479
-5.885 6.347 30.534
-12.838 6.347 32.172
-10.779 6.347 31.964
-1.969 6.347 31.369
-12.402 6.347 30.365
-7.399 6.347 30.265
-13.044 6.347 30.682
-1.749 6.347 31.277
-7.231 6.347 32.944
-13.970 6.347 30.530
14.036 6.347 30.320
-5.242 6.347 32.523
-7.174 6.347 32.745
0.899 6.347 32.341
-15.675 6.347 31.288
-6.182 6.347 32.111
3.846 6.347 31.615
-15.055 6.347 32.881
3.088 6.347 31.917
-13.378 6.347 34.324
-11.479 6.347 33.819
7.066 6.347 31.147
-15.038 6.347 33.089
-5.667 6.347 32.729
-11.392 6.347 33.924
3.124 6.347 30.713
-12.708 6.347 31.746
1.779 6.347 31.600
1.764 6.347 30.729
-13.729 6.347 31.058
0.429 6.347 32.454
-16.104 6.347 34.624
-9.574 6.347 30.929
-11.637 6.347 32.990
5.687 6.347 31.196
-14.067 6.347 33.901
-15.300 6.347 33.252
-1.778 6.347 31.127
-14.516 6.347 32.639
-12.633 6.347 30.726
1.074 6.347 31.730
-9.801 6.347 31.470
-9.871 6.347 31.307
-0.775 6.347 30.227
-12.871 6.347 31.945
-15.131 6.347 33.601
2.565 6.347 30.509
-5.910 6.347 31.466
9.173 6.347 30.345
6.889 6.347 30.954
-3.826 6.347 30.240
-12.711 6.347 30.517
-13.890 6.347 31.135
-14.302 6.347 30.490
-14.003 6.347 33.455
1.926 6.347 31.773
13.909 6.347 30.462
-0.830 6.347 31.251
1.969 6.347 31.659
-6.649 6.347 31.105
-11.825 6.347 31.897
-15.948 6.347 34.364
-3.868 6.347 32.595
-6.448 6.347 32.946
9.383 6.347 30.463
-13.200 6.347 34.471
0.826 6.347 31.663
-11.828 6.347 31.533
2.729 6.347 30.759
-5.005 6.347 31.582
4.694 6.347 31.503
-8.558 6.347 33.350
-3.080 6.347 31.884
11.974 6.347 30.766
-12.408 6.347 31.583
-15.854 6.347 30.583
0.587 6.347 32.391
-5.606 6.347 30.771
-8.150 6.347 33.005
-12.911 6.347 33.079
12.168 6.347 30.544
-10.538 6.347 33.702
-9.038 6.347 31.967
12.002 6.347 30.310
-0.775 6.347 32.533
1.127 6.347 30.877
-12.550 6.347 30.304
5.970 6.347 31.425
-15.603 6.347 33.800
-16.117 6.347 31.191
-12.637 6.347 32.417
-7.647 6.347 32.288
4.448 6.347 31.768
-12.420 6.347 31.540
-6.535 6.347 30.973
-14.487 6.347 31.483
-4.642 6.347 32.850
-11.530 6.347 33.564
-8.682 6.347 30.379
-13.694 6.347 30.314
-8.617 6.347 31.387
-13.707 6.347 32.563
-7.043 6.347 32.178
9.247 6.347 30.521
-10.258 6.347 32.499
0.184 6.347 31.060
-10.519 6.347 30.756
-8.722 6.347 31.847
2.915 6.347 30.981
-13.178 6.347 31.981
-9.422 6.347 33.212
-9.812 6.347 32.616
4.439 6.347 31.171
-12.957 6.347 33.491
-8.925 6.347 32.928
-3.218 6.347 30.220
-9.420 6.347 31.979
-13.014 6.347 31.290
3.674 6.347 30.425
4.782 6.347 30.742
-0.536 6.347 32.135
-4.091 6.347 32.639
1.486 6.347 30.303
-9.125 6.347 32.705
-3.700 6.347 32.897
-14.123 6.347 33.089
-14.442 6.347 30.576
-8.433 6.347 33.733
-13.264 6.347 34.115
5.416 6.347 30.372
-2.870 6.347 30.752
-3.456 6.347 31.999
-1.034 6.347 32.073
-14.007 6.347 31.860
-1.266 6.347 30.242
2.252 6.347 31.848
-8.891 6.347 33.853
-6.967 6.347 32.710
6.094 6.347 30.858
-13.257 6.347 31.702
-1.337 6.347 30.656
4.021 6.347 30.491
-12.954 6.347 33.527
-8.914 6.347 31.542
6.188 6.347 31.139
7.809 6.347 30.542
-0.595 6.347 31.407
-12.113 6.347 31.160
-13.655 6.347 34.399
-2.578 6.347 30.548
-9.773 6.347 30.523
3.538 6.347 31.704
-0.260 6.347 31.713
-8.715 6.347 31.421
6.782 6.347 30.783
-13.684 6.347 32.621
-13.006 6.347 31.464
-12.788 6.347 32.053
-0.438 6.347 30.883
8.642 6.347 31.138
-11.257 6.347 30.898
-10.404 6.347 33.831
-11.722 6.347 33.675
8.960 6.347 30.201
-0.254 6.347 30.457
-14.948 6.347 34.411
-13.951 6.347 33.435
-15.846 6.347 34.184
-3.584 6.347 31.710
-13.592 6.347 32.718
-15.011 6.347 33.454
-4.429 6.347 31.108
-10.733 6.347 30.737
-4.210 6.347 31.616
9.948 6.347 30.204
7.480 6.347 30.917
8.527 6.347 30.971
-5.343 6.347 31.343
-5.831 6.347 31.947
6.920 6.347 31.315
-10.203 6.347 32.174
-10.013 6.347 30.231
-4.506 6.347 31.323
5.110 6.347 31.892
1.741 6.347 31.280
-2.370 6.347 30.698
13.367 6.347 30.542
-2.610 6.347 30.538
-13.374 6.347 34.088
-1.076 6.347 31.646
-14.301 6.347 31.177
-4.103 6.347 32.420
12.430 6.347 30.621
-0.776 6.347 32.004
-9.036 6.347 32.035
4.012 6.347 31.133
-5.786 6.347 31.183
2.237 6.347 32.202
-1.911 6.347 30.852
-9.618 6.347 33.345
7.802 6.347 30.983
7.463 6.347 30.589
3.155 6.347 31.733
