10.794979095458984,6.2761507034301758,33.891212463378906,1
10.794979095458984,6.2761507034301758,34.393306732177734,1
10.794979095458984,6.2761507034301758,34.895397186279297,1
10.794979095458984,6.2761507034301758,35.397487640380859,1
10.794979095458984,6.2761507034301758,35.899581909179688,1
10.794979095458984,6.2761507034301758,36.40167236328125,1
10.794979095458984,6.2761507034301758,36.903766632080078,1
10.794979095458984,6.2761507034301758,37.405857086181641,1
10.794979095458984,6.2761507034301758,37.907951354980469,1
10.794979095458984,6.2761507034301758,38.410041809082031,1
10.794979095458984,6.2761507034301758,38.912132263183594,1
10.794979095458984,6.2761507034301758,39.414226531982422,1
10.794979095458984,6.2761507034301758,39.916316986083984,1
10.794979095458984,6.2761507034301758,40.418411254882812,1
10.794979095458984,6.2761507034301758,40.920501708984375,1
10.794979095458984,6.2761507034301758,41.422595977783203,1
10.794979095458984,6.2761507034301758,41.924686431884766,1
10.794979095458984,6.2761507034301758,43.933055877685547,1
10.794979095458984,6.2761507034301758,44.435146331787109,1
10.794979095458984,6.2761507034301758,44.937236785888672,1
10.794979095458984,6.2761507034301758,45.4393310546875,1
10.794979095458984,6.2761507034301758,45.941421508789062,1
10.794979095458984,6.2761507034301758,46.443515777587891,1
10.794979095458984,6.2761507034301758,46.945606231689453,1
10.794979095458984,6.2761507034301758,47.949790954589844,1
10.794979095458984,6.2761507034301758,48.451881408691406,1
10.794979095458984,6.2761507034301758,49.456066131591797,1
10.794979095458984,6.2761507034301758,49.958160400390625,1
10.794979095458984,6.2761507034301758,50.96234130859375,1
10.794979095458984,6.2761507034301758,51.464435577392578,1
10.794979095458984,6.2761507034301758,51.966526031494141,1
10.794979095458984,6.2761507034301758,52.468620300292969,1
10.794979095458984,6.2761507034301758,52.970710754394531,1
10.794979095458984,6.2761507034301758,53.472805023193359,1
10.794979095458984,6.2761507034301758,53.974895477294922,1
10.794979095458984,6.2761507034301758,54.476985931396484,1
10.794979095458984,6.2761507034301758,54.979080200195312,1
10.794979095458984,6.2761507034301758,55.481170654296875,1
10.794979095458984,6.7782425880432129,-49.958160400390625,1
10.794979095458984,6.7782425880432129,-35.899581909179688,1
10.794979095458984,6.7782425880432129,-12.803347587585449,1
10.794979095458984,6.7782425880432129,13.305438995361328,1
10.794979095458984,6.7782425880432129,13.807531356811523,1
10.794979095458984,6.7782425880432129,36.40167236328125,1
10.794979095458984,6.7782425880432129,49.456066131591797,1
10.794979095458984,6.7782425880432129,49.958160400390625,1
10.794979095458984,7.2803349494934082,-12.803347587585449,1
10.794979095458984,7.7824268341064453,-13.305438995361328,1
10.794979095458984,7.7824268341064453,-12.803347587585449,1
10.794979095458984,7.7824268341064453,13.305438995361328,1
10.794979095458984,7.7824268341064453,13.807531356811523,1
10.794979095458984,8.2845191955566406,13.807531356811523,1
10.794979095458984,8.7866106033325195,-13.305438995361328,1
10.794979095458984,8.7866106033325195,-12.803347587585449,1
10.794979095458984,8.7866106033325195,13.305438995361328,1
10.794979095458984,9.2887029647827148,-12.803347587585449,1
10.794979095458984,9.2887029647827148,13.305438995361328,1
10.794979095458984,9.7907953262329102,-12.803347587585449,1
10.794979095458984,9.7907953262329102,13.305438995361328,1
10.794979095458984,9.7907953262329102,13.807531356811523,1
10.794979095458984,10.292886734008789,13.305438995361328,1
10.794979095458984,10.292886734008789,13.807531356811523,1
10.794979095458984,10.794979095458984,-12.803347587585449,1
10.794979095458984,10.794979095458984,13.305438995361328,1
10.794979095458984,10.794979095458984,13.807531356811523,1
10.794979095458984,11.29707145690918,-13.305438995361328,1
10.794979095458984,11.29707145690918,-12.803347587585449,1
10.794979095458984,11.29707145690918,13.305438995361328,1
10.794979095458984,11.799162864685059,-12.803347587585449,1
10.794979095458984,11.799162864685059,13.305438995361328,1
10.794979095458984,11.799162864685059,13.807531356811523,1
11.29707145690918,0.25104603171348572,-0.25104603171348572,1
11.29707145690918,0.75313806533813477,-12.803347587585449,1
11.29707145690918,0.75313806533813477,-0.75313806533813477,1
11.29707145690918,0.75313806533813477,-0.25104603171348572,1
11.29707145690918,0.75313806533813477,0.25104603171348572,1
11.29707145690918,0.75313806533813477,0.75313806533813477,1
11.29707145690918,0.75313806533813477,13.305438995361328,1
11.29707145690918,0.75313806533813477,13.807531356811523,1
11.29707145690918,1.2552300691604614,-12.803347587585449,1
11.29707145690918,1.2552300691604614,-0.75313806533813477,1
11.29707145690918,1.2552300691604614,1.2552300691604614,1
11.29707145690918,1.2552300691604614,13.305438995361328,1
11.29707145690918,1.2552300691604614,13.807531356811523,1
11.29707145690918,1.7573221921920776,-12.803347587585449,1
11.29707145690918,1.7573221921920776,-0.75313806533813477,1
11.29707145690918,1.7573221921920776,13.305438995361328,1
11.29707145690918,1.7573221921920776,13.807531356811523,1
11.29707145690918,2.2594141960144043,-12.803347587585449,1
11.29707145690918,2.2594141960144043,-0.75313806533813477,1
11.29707145690918,2.2594141960144043,-0.25104603171348572,1
11.29707145690918,2.2594141960144043,0.25104603171348572,1
11.29707145690918,2.2594141960144043,0.75313806533813477,1
11.29707145690918,2.2594141960144043,13.305438995361328,1
11.29707145690918,2.2594141960144043,13.807531356811523,1
11.29707145690918,2.7615063190460205,-12.803347587585449,1
11.29707145690918,2.7615063190460205,13.305438995361328,1
11.29707145690918,2.7615063190460205,13.807531356811523,1
11.29707145690918,3.2635984420776367,-12.803347587585449,1
11.29707145690918,3.2635984420776367,13.807531356811523,1
11.29707145690918,3.7656903266906738,-12.803347587585449,1
11.29707145690918,3.7656903266906738,13.305438995361328,1
11.29707145690918,3.7656903266906738,13.807531356811523,1
11.29707145690918,4.2677822113037109,-12.803347587585449,1
11.29707145690918,4.2677822113037109,13.807531356811523,1
11.29707145690918,4.7698745727539062,-12.803347587585449,1
11.29707145690918,4.7698745727539062,13.305438995361328,1
11.29707145690918,4.7698745727539062,13.807531356811523,1
11.29707145690918,5.2719664573669434,-12.803347587585449,1
11.29707145690918,5.2719664573669434,13.807531356811523,1
11.29707145690918,5.7740583419799805,-12.803347587585449,1
11.29707145690918,5.7740583419799805,13.305438995361328,1
11.29707145690918,5.7740583419799805,13.807531356811523,1
11.29707145690918,6.2761507034301758,-55.481170654296875,1
11.29707145690918,6.2761507034301758,-54.979080200195312,1
11.29707145690918,6.2761507034301758,-54.476985931396484,1
11.29707145690918,6.2761507034301758,-53.974895477294922,1
11.29707145690918,6.2761507034301758,-53.472805023193359,1
11.29707145690918,6.2761507034301758,-52.970710754394531,1
11.29707145690918,6.2761507034301758,-52.468620300292969,1
11.29707145690918,6.2761507034301758,-51.966526031494141,1
11.29707145690918,6.2761507034301758,-51.464435577392578,1
11.29707145690918,6.2761507034301758,-50.96234130859375,1
11.29707145690918,6.2761507034301758,-49.958160400390625,1
11.29707145690918,6.2761507034301758,-49.456066131591797,1
11.29707145690918,6.2761507034301758,-48.451881408691406,1
11.29707145690918,6.2761507034301758,-47.949790954589844,1
11.29707145690918,6.2761507034301758,-47.447700500488281,1
11.29707145690918,6.2761507034301758,-46.945606231689453,1
11.29707145690918,6.2761507034301758,-46.443515777587891,1
11.29707145690918,6.2761507034301758,-45.941421508789062,1
11.29707145690918,6.2761507034301758,-45.4393310546875,1
11.29707145690918,6.2761507034301758,-44.937236785888672,1
11.29707145690918,6.2761507034301758,-44.435146331787109,1
11.29707145690918,6.2761507034301758,-41.924686431884766,1
11.29707145690918,6.2761507034301758,-41.422595977783203,1
11.29707145690918,6.2761507034301758,-40.920501708984375,1
11.29707145690918,6.2761507034301758,-40.418411254882812,1
11.29707145690918,6.2761507034301758,-39.916316986083984,1
11.29707145690918,6.2761507034301758,-39.414226531982422,1
11.29707145690918,6.2761507034301758,-38.912132263183594,1
11.29707145690918,6.2761507034301758,-38.410041809082031,1
11.29707145690918,6.2761507034301758,-37.907951354980469,1
11.29707145690918,6.2761507034301758,-37.405857086181641,1
11.29707145690918,6.2761507034301758,-36.40167236328125,1
11.29707145690918,6.2761507034301758,-35.899581909179688,1
11.29707145690918,6.2761507034301758,-35.397487640380859,1
11.29707145690918,6.2761507034301758,-34.895397186279297,1
11.29707145690918,6.2761507034301758,-34.393306732177734,1
11.29707145690918,6.2761507034301758,-33.891212463378906,1
11.29707145690918,6.2761507034301758,-33.389122009277344,1
11.29707145690918,6.2761507034301758,-32.887027740478516,1
11.29707145690918,6.2761507034301758,-32.384937286376953,1
11.29707145690918,6.2761507034301758,-31.882844924926758,1
11.29707145690918,6.2761507034301758,-31.380752563476562,1
11.29707145690918,6.2761507034301758,-30.878660202026367,1
11.29707145690918,6.2761507034301758,-30.376569747924805,1
11.29707145690918,6.2761507034301758,-12.803347587585449,1
11.29707145690918,6.2761507034301758,13.305438995361328,1
11.29707145690918,6.2761507034301758,13.807531356811523,1
11.29707145690918,6.2761507034301758,29.874477386474609,1
11.29707145690918,6.2761507034301758,30.376569747924805,1
11.29707145690918,6.2761507034301758,30.878660202026367,1
11.29707145690918,6.2761507034301758,31.380752563476562,1
11.29707145690918,6.2761507034301758,31.882844924926758,1
11.29707145690918,6.2761507034301758,32.384937286376953,1
11.29707145690918,6.2761507034301758,32.887027740478516,1
11.29707145690918,6.2761507034301758,33.389122009277344,1
11.29707145690918,6.2761507034301758,33.891212463378906,1
11.29707145690918,6.2761507034301758,34.393306732177734,1
11.29707145690918,6.2761507034301758,34.895397186279297,1
11.29707145690918,6.2761507034301758,35.397487640380859,1
11.29707145690918,6.2761507034301758,35.899581909179688,1
11.29707145690918,6.2761507034301758,37.405857086181641,1
11.29707145690918,6.2761507034301758,37.907951354980469,1
11.29707145690918,6.2761507034301758,38.410041809082031,1
11.29707145690918,6.2761507034301758,38.912132263183594,1
11.29707145690918,6.2761507034301758,39.414226531982422,1
11.29707145690918,6.2761507034301758,40.418411254882812,1
11.29707145690918,6.2761507034301758,40.920501708984375,1
11.29707145690918,6.2761507034301758,41.422595977783203,1
11.29707145690918,6.2761507034301758,41.924686431884766,1
11.29707145690918,6.2761507034301758,43.933055877685547,1
11.29707145690918,6.2761507034301758,44.435146331787109,1
11.29707145690918,6.2761507034301758,44.937236785888672,1
11.29707145690918,6.2761507034301758,45.4393310546875,1
11.29707145690918,6.2761507034301758,45.941421508789062,1
11.29707145690918,6.2761507034301758,46.443515777587891,1
11.29707145690918,6.2761507034301758,46.945606231689453,1
11.29707145690918,6.2761507034301758,47.447700500488281,1
11.29707145690918,6.2761507034301758,47.949790954589844,1
11.29707145690918,6.2761507034301758,48.451881408691406,1
11.29707145690918,6.2761507034301758,49.456066131591797,1
11.29707145690918,6.2761507034301758,49.958160400390625,1
11.29707145690918,6.2761507034301758,50.96234130859375,1
11.29707145690918,6.2761507034301758,51.464435577392578,1
11.29707145690918,6.2761507034301758,51.966526031494141,1
11.29707145690918,6.2761507034301758,52.468620300292969,1
11.29707145690918,6.2761507034301758,52.970710754394531,1
11.29707145690918,6.2761507034301758,53.472805023193359,1
11.29707145690918,6.2761507034301758,53.974895477294922,1
11.29707145690918,6.2761507034301758,54.476985931396484,1
11.29707145690918,6.2761507034301758,54.979080200195312,1
11.29707145690918,6.2761507034301758,55.481170654296875,1
11.29707145690918,6.7782425880432129,-49.958160400390625,1
11.29707145690918,6.7782425880432129,-36.40167236328125,1
11.29707145690918,6.7782425880432129,-35.899581909179688,1
11.29707145690918,6.7782425880432129,-12.803347587585449,1
11.29707145690918,6.7782425880432129,13.807531356811523,1
11.29707145690918,6.7782425880432129,35.899581909179688,1
11.29707145690918,6.7782425880432129,36.40167236328125,1
11.29707145690918,6.7782425880432129,49.456066131591797,1
11.29707145690918,6.7782425880432129,49.958160400390625,1
11.29707145690918,7.2803349494934082,-12.803347587585449,1
11.29707145690918,7.2803349494934082,13.807531356811523,1
11.29707145690918,7.7824268341064453,-12.803347587585449,1
11.29707145690918,7.7824268341064453,13.807531356811523,1
11.29707145690918,8.7866106033325195,-12.803347587585449,1
11.29707145690918,8.7866106033325195,13.807531356811523,1
11.29707145690918,9.2887029647827148,-12.803347587585449,1
11.29707145690918,9.2887029647827148,13.305438995361328,1
11.29707145690918,9.2887029647827148,13.807531356811523,1
11.29707145690918,9.7907953262329102,-12.803347587585449,1
11.29707145690918,9.7907953262329102,13.305438995361328,1
11.29707145690918,9.7907953262329102,13.807531356811523,1
11.29707145690918,10.292886734008789,-12.803347587585449,1
11.29707145690918,10.292886734008789,13.305438995361328,1
11.29707145690918,10.292886734008789,13.807531356811523,1
11.29707145690918,10.794979095458984,-12.803347587585449,1
11.29707145690918,10.794979095458984,13.305438995361328,1
11.29707145690918,10.794979095458984,13.807531356811523,1
11.29707145690918,11.29707145690918,-12.803347587585449,1
11.29707145690918,11.29707145690918,13.807531356811523,1
11.29707145690918,11.799162864685059,-12.803347587585449,1
11.29707145690918,11.799162864685059,13.807531356811523,1
11.799162864685059,0.25104603171348572,0.25104603171348572,1
11.799162864685059,0.25104603171348572,0.75313806533813477,1
11.799162864685059,0.75313806533813477,-12.803347587585449,1
11.799162864685059,0.75313806533813477,-0.75313806533813477,1
11.799162864685059,0.75313806533813477,-0.25104603171348572,1
11.799162864685059,0.75313806533813477,0.75313806533813477,1
11.799162864685059,0.75313806533813477,1.2552300691604614,1
11.799162864685059,0.75313806533813477,13.305438995361328,1
11.799162864685059,1.2552300691604614,-12.803347587585449,1
11.799162864685059,1.2552300691604614,-0.75313806533813477,1
11.799162864685059,1.2552300691604614,13.305438995361328,1
11.799162864685059,1.7573221921920776,-12.803347587585449,1
11.799162864685059,1.7573221921920776,-0.75313806533813477,1
11.799162864685059,1.7573221921920776,1.2552300691604614,1
11.799162864685059,1.7573221921920776,13.305438995361328,1
11.799162864685059,2.2594141960144043,-13.305438995361328,1
11.799162864685059,2.2594141960144043,-12.803347587585449,1
11.799162864685059,2.2594141960144043,-0.25104603171348572,1
11.799162864685059,2.2594141960144043,0.25104603171348572,1
11.799162864685059,2.2594141960144043,0.75313806533813477,1
11.799162864685059,2.2594141960144043,13.305438995361328,1
11.799162864685059,2.7615063190460205,13.305438995361328,1
11.799162864685059,3.2635984420776367,-13.305438995361328,1
11.799162864685059,3.2635984420776367,-12.803347587585449,1
11.799162864685059,3.2635984420776367,13.305438995361328,1
11.799162864685059,3.7656903266906738,-12.803347587585449,1
11.799162864685059,3.7656903266906738,13.305438995361328,1
11.799162864685059,4.2677822113037109,-12.803347587585449,1
11.799162864685059,4.7698745727539062,-13.305438995361328,1
11.799162864685059,4.7698745727539062,-12.803347587585449,1
11.799162864685059,4.7698745727539062,13.305438995361328,1
11.799162864685059,5.2719664573669434,-13.305438995361328,1
11.799162864685059,5.2719664573669434,-12.803347587585449,1
11.799162864685059,5.2719664573669434,13.305438995361328,1
11.799162864685059,5.7740583419799805,13.305438995361328,1
11.799162864685059,6.2761507034301758,-55.481170654296875,1
11.799162864685059,6.2761507034301758,-54.979080200195312,1
11.799162864685059,6.2761507034301758,-54.476985931396484,1
11.799162864685059,6.2761507034301758,-53.974895477294922,1
11.799162864685059,6.2761507034301758,-53.472805023193359,1
11.799162864685059,6.2761507034301758,-52.970710754394531,1
11.799162864685059,6.2761507034301758,-52.468620300292969,1
11.799162864685059,6.2761507034301758,-51.966526031494141,1
11.799162864685059,6.2761507034301758,-51.464435577392578,1
11.799162864685059,6.2761507034301758,-50.96234130859375,1
11.799162864685059,6.2761507034301758,-49.958160400390625,1
11.799162864685059,6.2761507034301758,-49.456066131591797,1
11.799162864685059,6.2761507034301758,-48.451881408691406,1
11.799162864685059,6.2761507034301758,-47.949790954589844,1
11.799162864685059,6.2761507034301758,-47.447700500488281,1
11.799162864685059,6.2761507034301758,-46.945606231689453,1
11.799162864685059,6.2761507034301758,-45.941421508789062,1
11.799162864685059,6.2761507034301758,-45.4393310546875,1
11.799162864685059,6.2761507034301758,-44.937236785888672,1
11.799162864685059,6.2761507034301758,-44.435146331787109,1
11.799162864685059,6.2761507034301758,-41.924686431884766,1
11.799162864685059,6.2761507034301758,-41.422595977783203,1
11.799162864685059,6.2761507034301758,-40.920501708984375,1
11.799162864685059,6.2761507034301758,-40.418411254882812,1
11.799162864685059,6.2761507034301758,-39.916316986083984,1
11.799162864685059,6.2761507034301758,-39.414226531982422,1
11.799162864685059,6.2761507034301758,-38.912132263183594,1
11.799162864685059,6.2761507034301758,-38.410041809082031,1
11.799162864685059,6.2761507034301758,-37.907951354980469,1
11.799162864685059,6.2761507034301758,-37.405857086181641,1
11.799162864685059,6.2761507034301758,-36.903766632080078,1
11.799162864685059,6.2761507034301758,-36.40167236328125,1
11.799162864685059,6.2761507034301758,-35.899581909179688,1
11.799162864685059,6.2761507034301758,-35.397487640380859,1
11.799162864685059,6.2761507034301758,-34.895397186279297,1
11.799162864685059,6.2761507034301758,-34.393306732177734,1
11.799162864685059,6.2761507034301758,-33.891212463378906,1
11.799162864685059,6.2761507034301758,-33.389122009277344,1
11.799162864685059,6.2761507034301758,-32.887027740478516,1
11.799162864685059,6.2761507034301758,-32.384937286376953,1
11.799162864685059,6.2761507034301758,-31.882844924926758,1
11.799162864685059,6.2761507034301758,-31.380752563476562,1
11.799162864685059,6.2761507034301758,-30.878660202026367,1
11.799162864685059,6.2761507034301758,-30.376569747924805,1
11.799162864685059,6.2761507034301758,-13.305438995361328,1
11.799162864685059,6.2761507034301758,-12.803347587585449,1
11.799162864685059,6.2761507034301758,13.305438995361328,1
11.799162864685059,6.2761507034301758,30.376569747924805,1
11.799162864685059,6.2761507034301758,30.878660202026367,1
11.799162864685059,6.2761507034301758,31.380752563476562,1
11.799162864685059,6.2761507034301758,31.882844924926758,1
11.799162864685059,6.2761507034301758,32.384937286376953,1
11.799162864685059,6.2761507034301758,32.887027740478516,1
11.799162864685059,6.2761507034301758,33.389122009277344,1
11.799162864685059,6.2761507034301758,33.891212463378906,1
11.799162864685059,6.2761507034301758,34.393306732177734,1
11.799162864685059,6.2761507034301758,34.895397186279297,1
11.799162864685059,6.2761507034301758,35.899581909179688,1
11.799162864685059,6.2761507034301758,36.40167236328125,1
11.799162864685059,6.2761507034301758,36.903766632080078,1
11.799162864685059,6.2761507034301758,37.405857086181641,1
11.799162864685059,6.2761507034301758,37.907951354980469,1
11.799162864685059,6.2761507034301758,38.410041809082031,1
11.799162864685059,6.2761507034301758,38.912132263183594,1
11.799162864685059,6.2761507034301758,39.414226531982422,1
11.799162864685059,6.2761507034301758,39.916316986083984,1
11.799162864685059,6.2761507034301758,40.418411254882812,1
11.799162864685059,6.2761507034301758,40.920501708984375,1
11.799162864685059,6.2761507034301758,41.422595977783203,1
11.799162864685059,6.2761507034301758,43.933055877685547,1
11.799162864685059,6.2761507034301758,44.435146331787109,1
11.799162864685059,6.2761507034301758,44.937236785888672,1
11.799162864685059,6.2761507034301758,45.4393310546875,1
11.799162864685059,6.2761507034301758,45.941421508789062,1
11.799162864685059,6.2761507034301758,46.443515777587891,1
11.799162864685059,6.2761507034301758,46.945606231689453,1
11.799162864685059,6.2761507034301758,47.447700500488281,1
11.799162864685059,6.2761507034301758,47.949790954589844,1
11.799162864685059,6.2761507034301758,48.451881408691406,1
11.799162864685059,6.2761507034301758,49.456066131591797,1
11.799162864685059,6.2761507034301758,49.958160400390625,1
11.799162864685059,6.2761507034301758,50.96234130859375,1
11.799162864685059,6.2761507034301758,51.464435577392578,1
11.799162864685059,6.2761507034301758,51.966526031494141,1
11.799162864685059,6.2761507034301758,52.468620300292969,1
11.799162864685059,6.2761507034301758,52.970710754394531,1
11.799162864685059,6.2761507034301758,53.472805023193359,1
11.799162864685059,6.2761507034301758,53.974895477294922,1
11.799162864685059,6.2761507034301758,54.476985931396484,1
11.799162864685059,6.2761507034301758,54.979080200195312,1
11.799162864685059,6.2761507034301758,55.481170654296875,1
11.799162864685059,6.7782425880432129,-49.958160400390625,1
11.799162864685059,6.7782425880432129,-49.456066131591797,1
11.799162864685059,6.7782425880432129,-36.40167236328125,1
11.799162864685059,6.7782425880432129,-35.899581909179688,1
11.799162864685059,6.7782425880432129,-35.397487640380859,1
11.799162864685059,6.7782425880432129,-13.305438995361328,1
11.799162864685059,6.7782425880432129,-12.803347587585449,1
11.799162864685059,6.7782425880432129,13.305438995361328,1
11.799162864685059,6.7782425880432129,35.899581909179688,1
11.799162864685059,6.7782425880432129,36.40167236328125,1
11.799162864685059,6.7782425880432129,49.456066131591797,1
11.799162864685059,6.7782425880432129,49.958160400390625,1
11.799162864685059,7.2803349494934082,-13.305438995361328,1
11.799162864685059,7.2803349494934082,-12.803347587585449,1
11.799162864685059,7.2803349494934082,13.305438995361328,1
11.799162864685059,7.7824268341064453,-13.305438995361328,1
11.799162864685059,7.7824268341064453,-12.803347587585449,1
11.799162864685059,7.7824268341064453,13.305438995361328,1
11.799162864685059,8.2845191955566406,-12.803347587585449,1
11.799162864685059,8.7866106033325195,-12.803347587585449,1
11.799162864685059,8.7866106033325195,13.305438995361328,1
11.799162864685059,9.2887029647827148,-12.803347587585449,1
11.799162864685059,9.2887029647827148,13.305438995361328,1
11.799162864685059,9.7907953262329102,-13.305438995361328,1
11.799162864685059,9.7907953262329102,-12.803347587585449,1
11.799162864685059,9.7907953262329102,13.305438995361328,1
11.799162864685059,10.292886734008789,-13.305438995361328,1
11.799162864685059,10.292886734008789,-12.803347587585449,1
11.799162864685059,10.292886734008789,13.305438995361328,1
11.799162864685059,10.794979095458984,-12.803347587585449,1
11.799162864685059,11.29707145690918,-13.305438995361328,1
11.799162864685059,11.29707145690918,-12.803347587585449,1
11.799162864685059,11.29707145690918,13.305438995361328,1
11.799162864685059,11.799162864685059,-13.305438995361328,1
11.799162864685059,11.799162864685059,-12.803347587585449,1
11.799162864685059,11.799162864685059,13.305438995361328,1
12.301255226135254,-0.25104603171348572,-0.25104603171348572,1
12.301255226135254,0.25104603171348572,-0.75313806533813477,1
12.301255226135254,0.25104603171348572,-0.25104603171348572,1
12.301255226135254,0.25104603171348572,0.25104603171348572,1
12.301255226135254,0.25104603171348572,0.75313806533813477,1
12.301255226135254,0.25104603171348572,3.2635984420776367,1
12.301255226135254,0.25104603171348572,3.7656903266906738,1
12.301255226135254,0.25104603171348572,4.2677822113037109,1
12.301255226135254,0.75313806533813477,-13.305438995361328,1
12.301255226135254,0.75313806533813477,-0.75313806533813477,1
12.301255226135254,0.75313806533813477,-0.25104603171348572,1
12.301255226135254,0.75313806533813477,0.25104603171348572,1
12.301255226135254,0.75313806533813477,0.75313806533813477,1
12.301255226135254,0.75313806533813477,1.2552300691604614,1
12.301255226135254,0.75313806533813477,2.7615063190460205,1
12.301255226135254,0.75313806533813477,3.2635984420776367,1
12.301255226135254,0.75313806533813477,4.2677822113037109,1
12.301255226135254,0.75313806533813477,13.305438995361328,1
12.301255226135254,1.2552300691604614,-13.305438995361328,1
12.301255226135254,1.2552300691604614,-1.2552300691604614,1
12.301255226135254,1.2552300691604614,-0.75313806533813477,1
12.301255226135254,1.2552300691604614,-0.25104603171348572,1
12.301255226135254,1.2552300691604614,0.25104603171348572,1
12.301255226135254,1.2552300691604614,0.75313806533813477,1
12.301255226135254,1.2552300691604614,1.2552300691604614,1
12.301255226135254,1.2552300691604614,3.7656903266906738,1
12.301255226135254,1.2552300691604614,4.2677822113037109,1
12.301255226135254,1.2552300691604614,13.305438995361328,1
12.301255226135254,1.7573221921920776,-13.305438995361328,1
12.301255226135254,1.7573221921920776,-0.75313806533813477,1
12.301255226135254,1.7573221921920776,-0.25104603171348572,1
12.301255226135254,1.7573221921920776,0.25104603171348572,1
12.301255226135254,1.7573221921920776,0.75313806533813477,1
12.301255226135254,1.7573221921920776,1.2552300691604614,1
12.301255226135254,1.7573221921920776,13.305438995361328,1
12.301255226135254,2.2594141960144043,-13.305438995361328,1
12.301255226135254,2.2594141960144043,-0.25104603171348572,1
12.301255226135254,2.2594141960144043,0.25104603171348572,1
12.301255226135254,2.2594141960144043,0.75313806533813477,1
12.301255226135254,2.2594141960144043,3.2635984420776367,1
12.301255226135254,2.2594141960144043,3.7656903266906738,1
12.301255226135254,2.2594141960144043,4.2677822113037109,1
12.301255226135254,2.2594141960144043,13.305438995361328,1
12.301255226135254,2.7615063190460205,-13.305438995361328,1
12.301255226135254,2.7615063190460205,13.305438995361328,1
12.301255226135254,3.2635984420776367,-13.305438995361328,1
12.301255226135254,3.2635984420776367,13.305438995361328,1
12.301255226135254,3.7656903266906738,-13.305438995361328,1
12.301255226135254,3.7656903266906738,13.305438995361328,1
12.301255226135254,4.7698745727539062,-13.305438995361328,1
12.301255226135254,4.7698745727539062,13.305438995361328,1
12.301255226135254,5.2719664573669434,-13.305438995361328,1
12.301255226135254,5.2719664573669434,13.305438995361328,1
12.301255226135254,5.7740583419799805,-13.305438995361328,1
12.301255226135254,5.7740583419799805,13.305438995361328,1
12.301255226135254,6.2761507034301758,-55.481170654296875,1
12.301255226135254,6.2761507034301758,-54.979080200195312,1
12.301255226135254,6.2761507034301758,-54.476985931396484,1
12.301255226135254,6.2761507034301758,-53.974895477294922,1
12.301255226135254,6.2761507034301758,-53.472805023193359,1
12.301255226135254,6.2761507034301758,-52.970710754394531,1
12.301255226135254,6.2761507034301758,-52.468620300292969,1
12.301255226135254,6.2761507034301758,-51.966526031494141,1
12.301255226135254,6.2761507034301758,-51.464435577392578,1
12.301255226135254,6.2761507034301758,-50.96234130859375,1
12.301255226135254,6.2761507034301758,-49.958160400390625,1
12.301255226135254,6.2761507034301758,-49.456066131591797,1
12.301255226135254,6.2761507034301758,-48.451881408691406,1
12.301255226135254,6.2761507034301758,-47.949790954589844,1
12.301255226135254,6.2761507034301758,-47.447700500488281,1
12.301255226135254,6.2761507034301758,-46.945606231689453,1
12.301255226135254,6.2761507034301758,-46.443515777587891,1
12.301255226135254,6.2761507034301758,-45.941421508789062,1
12.301255226135254,6.2761507034301758,-45.4393310546875,1
12.301255226135254,6.2761507034301758,-44.937236785888672,1
12.301255226135254,6.2761507034301758,-44.435146331787109,1
12.301255226135254,6.2761507034301758,-43.933055877685547,1
12.301255226135254,6.2761507034301758,-41.422595977783203,1
12.301255226135254,6.2761507034301758,-40.920501708984375,1
12.301255226135254,6.2761507034301758,-40.418411254882812,1
12.301255226135254,6.2761507034301758,-39.916316986083984,1
12.301255226135254,6.2761507034301758,-39.414226531982422,1
12.301255226135254,6.2761507034301758,-38.912132263183594,1
12.301255226135254,6.2761507034301758,-38.410041809082031,1
12.301255226135254,6.2761507034301758,-37.907951354980469,1
12.301255226135254,6.2761507034301758,-37.405857086181641,1
12.301255226135254,6.2761507034301758,-35.899581909179688,1
12.301255226135254,6.2761507034301758,-35.397487640380859,1
12.301255226135254,6.2761507034301758,-34.895397186279297,1
12.301255226135254,6.2761507034301758,-34.393306732177734,1
12.301255226135254,6.2761507034301758,-33.891212463378906,1
12.301255226135254,6.2761507034301758,-33.389122009277344,1
12.301255226135254,6.2761507034301758,-32.887027740478516,1
12.301255226135254,6.2761507034301758,-32.384937286376953,1
12.301255226135254,6.2761507034301758,-31.380752563476562,1
12.301255226135254,6.2761507034301758,-30.878660202026367,1
12.301255226135254,6.2761507034301758,-30.376569747924805,1
12.301255226135254,6.2761507034301758,-13.305438995361328,1
12.301255226135254,6.2761507034301758,13.305438995361328,1
12.301255226135254,6.2761507034301758,30.376569747924805,1
12.301255226135254,6.2761507034301758,30.878660202026367,1
12.301255226135254,6.2761507034301758,31.380752563476562,1
12.301255226135254,6.2761507034301758,31.882844924926758,1
12.301255226135254,6.2761507034301758,32.384937286376953,1
12.301255226135254,6.2761507034301758,32.887027740478516,1
12.301255226135254,6.2761507034301758,33.389122009277344,1
12.301255226135254,6.2761507034301758,33.891212463378906,1
12.301255226135254,6.2761507034301758,34.393306732177734,1
12.301255226135254,6.2761507034301758,34.895397186279297,1
12.301255226135254,6.2761507034301758,35.899581909179688,1
12.301255226135254,6.2761507034301758,36.40167236328125,1
12.301255226135254,6.2761507034301758,36.903766632080078,1
12.301255226135254,6.2761507034301758,37.907951354980469,1
12.301255226135254,6.2761507034301758,38.410041809082031,1
12.301255226135254,6.2761507034301758,38.912132263183594,1
12.301255226135254,6.2761507034301758,39.414226531982422,1
12.301255226135254,6.2761507034301758,39.916316986083984,1
12.301255226135254,6.2761507034301758,40.418411254882812,1
12.301255226135254,6.2761507034301758,40.920501708984375,1
12.301255226135254,6.2761507034301758,41.422595977783203,1
12.301255226135254,6.2761507034301758,41.924686431884766,1
12.301255226135254,6.2761507034301758,43.933055877685547,1
12.301255226135254,6.2761507034301758,44.435146331787109,1
12.301255226135254,6.2761507034301758,44.937236785888672,1
12.301255226135254,6.2761507034301758,45.4393310546875,1
12.301255226135254,6.2761507034301758,45.941421508789062,1
12.301255226135254,6.2761507034301758,46.443515777587891,1
12.301255226135254,6.2761507034301758,46.945606231689453,1
12.301255226135254,6.2761507034301758,47.447700500488281,1
12.301255226135254,6.2761507034301758,47.949790954589844,1
12.301255226135254,6.2761507034301758,48.451881408691406,1
12.301255226135254,6.2761507034301758,49.456066131591797,1
12.301255226135254,6.2761507034301758,49.958160400390625,1
12.301255226135254,6.2761507034301758,50.96234130859375,1
12.301255226135254,6.2761507034301758,51.464435577392578,1
12.301255226135254,6.2761507034301758,51.966526031494141,1
12.301255226135254,6.2761507034301758,52.468620300292969,1
12.301255226135254,6.2761507034301758,52.970710754394531,1
12.301255226135254,6.2761507034301758,53.472805023193359,1
12.301255226135254,6.2761507034301758,53.974895477294922,1
12.301255226135254,6.2761507034301758,54.476985931396484,1
12.301255226135254,6.2761507034301758,54.979080200195312,1
12.301255226135254,6.2761507034301758,55.481170654296875,1
12.301255226135254,6.7782425880432129,-49.958160400390625,1
12.301255226135254,6.7782425880432129,-35.899581909179688,1
12.301255226135254,6.7782425880432129,-13.305438995361328,1
12.301255226135254,6.7782425880432129,13.305438995361328,1
12.301255226135254,6.7782425880432129,35.397487640380859,1
12.301255226135254,6.7782425880432129,35.899581909179688,1
12.301255226135254,6.7782425880432129,36.40167236328125,1
12.301255226135254,6.7782425880432129,49.456066131591797,1
12.301255226135254,6.7782425880432129,49.958160400390625,1
12.301255226135254,7.2803349494934082,-13.305438995361328,1
12.301255226135254,7.2803349494934082,13.305438995361328,1
12.301255226135254,7.7824268341064453,-13.305438995361328,1
12.301255226135254,7.7824268341064453,13.305438995361328,1
12.301255226135254,8.2845191955566406,-13.305438995361328,1
12.301255226135254,8.2845191955566406,13.305438995361328,1
12.301255226135254,8.7866106033325195,-13.305438995361328,1
12.301255226135254,8.7866106033325195,13.305438995361328,1
12.301255226135254,9.2887029647827148,-13.305438995361328,1
12.301255226135254,9.2887029647827148,13.305438995361328,1
12.301255226135254,9.7907953262329102,-13.305438995361328,1
12.301255226135254,9.7907953262329102,13.305438995361328,1
12.301255226135254,10.292886734008789,-13.305438995361328,1
12.301255226135254,10.292886734008789,13.305438995361328,1
12.301255226135254,10.794979095458984,-13.305438995361328,1
12.301255226135254,10.794979095458984,13.305438995361328,1
12.301255226135254,11.29707145690918,-13.305438995361328,1
12.301255226135254,11.29707145690918,13.305438995361328,1
12.301255226135254,11.799162864685059,-13.305438995361328,1
12.301255226135254,11.799162864685059,13.305438995361328,1
12.803347587585449,-1.2552300691604614,0.75313806533813477,1
12.803347587585449,-0.75313806533813477,-0.75313806533813477,1
12.803347587585449,-0.75313806533813477,-0.25104603171348572,1
12.803347587585449,-0.75313806533813477,0.25104603171348572,1
12.803347587585449,-0.75313806533813477,0.75313806533813477,1
12.803347587585449,-0.75313806533813477,1.2552300691604614,1
12.803347587585449,-0.75313806533813477,1.7573221921920776,1
12.803347587585449,-0.75313806533813477,2.7615063190460205,1
12.803347587585449,-0.75313806533813477,3.2635984420776367,1
12.803347587585449,-0.75313806533813477,3.7656903266906738,1
12.803347587585449,-0.75313806533813477,4.2677822113037109,1
12.803347587585449,-0.25104603171348572,-1.7573221921920776,1
12.803347587585449,-0.25104603171348572,-1.2552300691604614,1
12.803347587585449,-0.25104603171348572,-0.75313806533813477,1
12.803347587585449,-0.25104603171348572,-0.25104603171348572,1
12.803347587585449,-0.25104603171348572,0.25104603171348572,1
12.803347587585449,-0.25104603171348572,0.75313806533813477,1
12.803347587585449,-0.25104603171348572,1.2552300691604614,1
12.803347587585449,-0.25104603171348572,1.7573221921920776,1
12.803347587585449,-0.25104603171348572,3.7656903266906738,1
12.803347587585449,-0.25104603171348572,4.2677822113037109,1
12.803347587585449,0.25104603171348572,-1.7573221921920776,1
12.803347587585449,0.25104603171348572,-1.2552300691604614,1
12.803347587585449,0.25104603171348572,-0.75313806533813477,1
12.803347587585449,0.25104603171348572,0.75313806533813477,1
12.803347587585449,0.25104603171348572,1.2552300691604614,1
12.803347587585449,0.25104603171348572,1.7573221921920776,1
12.803347587585449,0.25104603171348572,2.2594141960144043,1
12.803347587585449,0.25104603171348572,2.7615063190460205,1
12.803347587585449,0.25104603171348572,3.2635984420776367,1
12.803347587585449,0.25104603171348572,3.7656903266906738,1
12.803347587585449,0.25104603171348572,4.2677822113037109,1
12.803347587585449,0.75313806533813477,-13.305438995361328,1
12.803347587585449,0.75313806533813477,-1.7573221921920776,1
12.803347587585449,0.75313806533813477,-1.2552300691604614,1
12.803347587585449,0.75313806533813477,-0.75313806533813477,1
12.803347587585449,0.75313806533813477,1.2552300691604614,1
12.803347587585449,0.75313806533813477,1.7573221921920776,1
12.803347587585449,0.75313806533813477,2.2594141960144043,1
12.803347587585449,0.75313806533813477,4.2677822113037109,1
12.803347587585449,0.75313806533813477,13.305438995361328,1
12.803347587585449,1.2552300691604614,-13.305438995361328,1
12.803347587585449,1.2552300691604614,-1.7573221921920776,1
12.803347587585449,1.2552300691604614,-1.2552300691604614,1
12.803347587585449,1.2552300691604614,-0.75313806533813477,1
12.803347587585449,1.2552300691604614,1.2552300691604614,1
12.803347587585449,1.2552300691604614,1.7573221921920776,1
12.803347587585449,1.2552300691604614,2.2594141960144043,1
12.803347587585449,1.2552300691604614,2.7615063190460205,1
12.803347587585449,1.2552300691604614,3.2635984420776367,1
12.803347587585449,1.2552300691604614,3.7656903266906738,1
12.803347587585449,1.2552300691604614,4.2677822113037109,1
12.803347587585449,1.2552300691604614,13.305438995361328,1
12.803347587585449,1.7573221921920776,-13.305438995361328,1
12.803347587585449,1.7573221921920776,-1.7573221921920776,1
12.803347587585449,1.7573221921920776,-1.2552300691604614,1
12.803347587585449,1.7573221921920776,-0.75313806533813477,1
12.803347587585449,1.7573221921920776,-0.25104603171348572,1
12.803347587585449,1.7573221921920776,0.75313806533813477,1
12.803347587585449,1.7573221921920776,1.2552300691604614,1
12.803347587585449,1.7573221921920776,1.7573221921920776,1
12.803347587585449,1.7573221921920776,2.2594141960144043,1
12.803347587585449,1.7573221921920776,2.7615063190460205,1
12.803347587585449,1.7573221921920776,3.2635984420776367,1
12.803347587585449,1.7573221921920776,3.7656903266906738,1
12.803347587585449,1.7573221921920776,4.2677822113037109,1
12.803347587585449,1.7573221921920776,13.305438995361328,1
12.803347587585449,2.2594141960144043,-13.305438995361328,1
12.803347587585449,2.2594141960144043,-1.7573221921920776,1
12.803347587585449,2.2594141960144043,-1.2552300691604614,1
12.803347587585449,2.2594141960144043,-0.75313806533813477,1
12.803347587585449,2.2594141960144043,-0.25104603171348572,1
12.803347587585449,2.2594141960144043,0.25104603171348572,1
12.803347587585449,2.2594141960144043,0.75313806533813477,1
12.803347587585449,2.2594141960144043,1.2552300691604614,1
12.803347587585449,2.2594141960144043,1.7573221921920776,1
12.803347587585449,2.2594141960144043,2.2594141960144043,1
12.803347587585449,2.2594141960144043,2.7615063190460205,1
12.803347587585449,2.2594141960144043,3.2635984420776367,1
12.803347587585449,2.2594141960144043,4.2677822113037109,1
12.803347587585449,2.2594141960144043,13.305438995361328,1
12.803347587585449,2.7615063190460205,-13.305438995361328,1
12.803347587585449,2.7615063190460205,-1.2552300691604614,1
12.803347587585449,2.7615063190460205,0.25104603171348572,1
12.803347587585449,2.7615063190460205,0.75313806533813477,1
12.803347587585449,2.7615063190460205,1.2552300691604614,1
12.803347587585449,2.7615063190460205,1.7573221921920776,1
12.803347587585449,2.7615063190460205,2.7615063190460205,1
12.803347587585449,2.7615063190460205,3.2635984420776367,1
12.803347587585449,2.7615063190460205,3.7656903266906738,1
12.803347587585449,2.7615063190460205,4.2677822113037109,1
12.803347587585449,2.7615063190460205,13.305438995361328,1
12.803347587585449,3.2635984420776367,-13.305438995361328,1
12.803347587585449,3.2635984420776367,-0.75313806533813477,1
12.803347587585449,3.2635984420776367,0.75313806533813477,1
12.803347587585449,3.2635984420776367,1.2552300691604614,1
12.803347587585449,3.2635984420776367,13.305438995361328,1
12.803347587585449,3.7656903266906738,-13.305438995361328,1
12.803347587585449,3.7656903266906738,13.305438995361328,1
12.803347587585449,4.2677822113037109,-13.305438995361328,1
12.803347587585449,4.2677822113037109,13.305438995361328,1
12.803347587585449,4.7698745727539062,-13.305438995361328,1
12.803347587585449,4.7698745727539062,13.305438995361328,1
12.803347587585449,5.2719664573669434,-13.305438995361328,1
12.803347587585449,5.2719664573669434,13.305438995361328,1
12.803347587585449,5.7740583419799805,-13.305438995361328,1
12.803347587585449,5.7740583419799805,13.305438995361328,1
12.803347587585449,6.2761507034301758,-55.481170654296875,1
12.803347587585449,6.2761507034301758,-54.979080200195312,1
12.803347587585449,6.2761507034301758,-54.476985931396484,1
12.803347587585449,6.2761507034301758,-53.974895477294922,1
12.803347587585449,6.2761507034301758,-52.468620300292969,1
12.803347587585449,6.2761507034301758,-51.966526031494141,1
12.803347587585449,6.2761507034301758,-51.464435577392578,1
12.803347587585449,6.2761507034301758,-50.96234130859375,1
12.803347587585449,6.2761507034301758,-49.958160400390625,1
12.803347587585449,6.2761507034301758,-49.456066131591797,1
12.803347587585449,6.2761507034301758,-48.451881408691406,1
12.803347587585449,6.2761507034301758,-47.949790954589844,1
12.803347587585449,6.2761507034301758,-47.447700500488281,1
12.803347587585449,6.2761507034301758,-46.945606231689453,1
12.803347587585449,6.2761507034301758,-46.443515777587891,1
12.803347587585449,6.2761507034301758,-45.941421508789062,1
12.803347587585449,6.2761507034301758,-45.4393310546875,1
12.803347587585449,6.2761507034301758,-44.937236785888672,1
12.803347587585449,6.2761507034301758,-43.933055877685547,1
12.803347587585449,6.2761507034301758,-41.422595977783203,1
12.803347587585449,6.2761507034301758,-40.920501708984375,1
12.803347587585449,6.2761507034301758,-40.418411254882812,1
12.803347587585449,6.2761507034301758,-39.916316986083984,1
12.803347587585449,6.2761507034301758,-39.414226531982422,1
12.803347587585449,6.2761507034301758,-38.912132263183594,1
12.803347587585449,6.2761507034301758,-38.410041809082031,1
12.803347587585449,6.2761507034301758,-37.907951354980469,1
12.803347587585449,6.2761507034301758,-37.405857086181641,1
12.803347587585449,6.2761507034301758,-36.40167236328125,1
12.803347587585449,6.2761507034301758,-35.899581909179688,1
12.803347587585449,6.2761507034301758,-34.895397186279297,1
12.803347587585449,6.2761507034301758,-34.393306732177734,1
12.803347587585449,6.2761507034301758,-33.891212463378906,1
12.803347587585449,6.2761507034301758,-33.389122009277344,1
12.803347587585449,6.2761507034301758,-32.887027740478516,1
12.803347587585449,6.2761507034301758,-32.384937286376953,1
12.803347587585449,6.2761507034301758,-31.882844924926758,1
12.803347587585449,6.2761507034301758,-30.878660202026367,1
12.803347587585449,6.2761507034301758,-30.376569747924805,1
12.803347587585449,6.2761507034301758,-13.305438995361328,1
12.803347587585449,6.2761507034301758,13.305438995361328,1
12.803347587585449,6.2761507034301758,29.874477386474609,1
12.803347587585449,6.2761507034301758,30.376569747924805,1
12.803347587585449,6.2761507034301758,30.878660202026367,1
12.803347587585449,6.2761507034301758,31.380752563476562,1
12.803347587585449,6.2761507034301758,31.882844924926758,1
12.803347587585449,6.2761507034301758,32.384937286376953,1
12.803347587585449,6.2761507034301758,32.887027740478516,1
12.803347587585449,6.2761507034301758,33.389122009277344,1
12.803347587585449,6.2761507034301758,33.891212463378906,1
12.803347587585449,6.2761507034301758,34.393306732177734,1
12.803347587585449,6.2761507034301758,35.397487640380859,1
12.803347587585449,6.2761507034301758,35.899581909179688,1
12.803347587585449,6.2761507034301758,36.40167236328125,1
12.803347587585449,6.2761507034301758,36.903766632080078,1
12.803347587585449,6.2761507034301758,37.405857086181641,1
12.803347587585449,6.2761507034301758,37.907951354980469,1
12.803347587585449,6.2761507034301758,38.410041809082031,1
12.803347587585449,6.2761507034301758,38.912132263183594,1
12.803347587585449,6.2761507034301758,39.414226531982422,1
12.803347587585449,6.2761507034301758,39.916316986083984,1
12.803347587585449,6.2761507034301758,40.418411254882812,1
12.803347587585449,6.2761507034301758,40.920501708984375,1
12.803347587585449,6.2761507034301758,41.422595977783203,1
12.803347587585449,6.2761507034301758,41.924686431884766,1
12.803347587585449,6.2761507034301758,43.933055877685547,1
12.803347587585449,6.2761507034301758,44.435146331787109,1
12.803347587585449,6.2761507034301758,44.937236785888672,1
12.803347587585449,6.2761507034301758,45.4393310546875,1
12.803347587585449,6.2761507034301758,45.941421508789062,1
12.803347587585449,6.2761507034301758,46.443515777587891,1
12.803347587585449,6.2761507034301758,46.945606231689453,1
12.803347587585449,6.2761507034301758,47.447700500488281,1
12.803347587585449,6.2761507034301758,47.949790954589844,1
12.803347587585449,6.2761507034301758,48.451881408691406,1
12.803347587585449,6.2761507034301758,49.456066131591797,1
12.803347587585449,6.2761507034301758,49.958160400390625,1
12.803347587585449,6.2761507034301758,50.96234130859375,1
12.803347587585449,6.2761507034301758,51.464435577392578,1
12.803347587585449,6.2761507034301758,51.966526031494141,1
12.803347587585449,6.2761507034301758,52.468620300292969,1
12.803347587585449,6.2761507034301758,52.970710754394531,1
12.803347587585449,6.2761507034301758,53.472805023193359,1
12.803347587585449,6.2761507034301758,53.974895477294922,1
12.803347587585449,6.2761507034301758,54.476985931396484,1
12.803347587585449,6.2761507034301758,54.979080200195312,1
12.803347587585449,6.2761507034301758,55.481170654296875,1
12.803347587585449,6.7782425880432129,-49.958160400390625,1
12.803347587585449,6.7782425880432129,-35.899581909179688,1
12.803347587585449,6.7782425880432129,-13.305438995361328,1
12.803347587585449,6.7782425880432129,13.305438995361328,1
12.803347587585449,6.7782425880432129,35.397487640380859,1
12.803347587585449,6.7782425880432129,35.899581909179688,1
12.803347587585449,6.7782425880432129,36.40167236328125,1
12.803347587585449,6.7782425880432129,49.958160400390625,1
12.803347587585449,7.2803349494934082,-13.305438995361328,1
12.803347587585449,7.2803349494934082,13.305438995361328,1
12.803347587585449,7.7824268341064453,-13.305438995361328,1
12.803347587585449,7.7824268341064453,13.305438995361328,1
12.803347587585449,8.2845191955566406,-13.305438995361328,1
12.803347587585449,8.7866106033325195,-13.305438995361328,1
12.803347587585449,8.7866106033325195,13.305438995361328,1
12.803347587585449,9.2887029647827148,-13.305438995361328,1
12.803347587585449,9.2887029647827148,13.305438995361328,1
12.803347587585449,9.7907953262329102,-13.305438995361328,1
12.803347587585449,9.7907953262329102,13.305438995361328,1
12.803347587585449,10.292886734008789,-13.305438995361328,1
12.803347587585449,10.292886734008789,13.305438995361328,1
12.803347587585449,10.794979095458984,-13.305438995361328,1
12.803347587585449,10.794979095458984,13.305438995361328,1
12.803347587585449,11.29707145690918,-13.305438995361328,1
12.803347587585449,11.29707145690918,13.305438995361328,1
12.803347587585449,11.799162864685059,13.305438995361328,1
13.305438995361328,-1.2552300691604614,-0.25104603171348572,1
13.305438995361328,-1.2552300691604614,0.25104603171348572,1
13.305438995361328,-1.2552300691604614,0.75313806533813477,1
13.305438995361328,-1.2552300691604614,2.7615063190460205,1
13.305438995361328,-1.2552300691604614,3.2635984420776367,1
13.305438995361328,-1.2552300691604614,3.7656903266906738,1
13.305438995361328,-1.2552300691604614,4.2677822113037109,1
13.305438995361328,-0.75313806533813477,-1.2552300691604614,1
13.305438995361328,-0.75313806533813477,-0.75313806533813477,1
13.305438995361328,-0.75313806533813477,-0.25104603171348572,1
13.305438995361328,-0.75313806533813477,0.75313806533813477,1
13.305438995361328,-0.75313806533813477,1.2552300691604614,1
13.305438995361328,-0.75313806533813477,1.7573221921920776,1
13.305438995361328,-0.75313806533813477,2.7615063190460205,1
13.305438995361328,-0.75313806533813477,4.2677822113037109,1
13.305438995361328,-0.25104603171348572,-1.2552300691604614,1
13.305438995361328,-0.25104603171348572,1.7573221921920776,1
13.305438995361328,-0.25104603171348572,2.2594141960144043,1
13.305438995361328,-0.25104603171348572,2.7615063190460205,1
